# .PCD v0.7 - Point Cloud Data file format
VERSION 0.7
FIELDS x y z rgba
SIZE 4 4 4 4
TYPE F F F U
COUNT 1 1 1 1
WIDTH 1123
HEIGHT 1
VIEWPOINT 0 0 0 1 0 0 0
POINTS 1123
DATA ascii
-185.1013 -1079.3188 3270.5466 4281143304
-185.47298 -1079.5444 3270.3262 4294901244
-185.42108 -1079.5381 3270.3811 4294901502
-185.34071 -1079.5275 3270.4397 4294901502
-185.25681 -1079.5159 3270.4941 4294901502
-185.1767 -1079.505 3270.5503 4294901502
-185.09302 -1079.4928 3270.6069 4294638330
-185.02359 -1079.4694 3270.6658 4289897634
-184.99809 -1079.4705 3270.7373 4287918195
-185.0874 -1079.3558 3270.6125 4280880389
-185.08049 -1079.3597 3270.6775 4280617732
-185.09663 -1079.3073 3270.6213 4280945926
-185.09254 -1079.3008 3270.6802 4280814341
-185.45566 -1079.5518 3270.4453 4294374121
-185.388 -1079.5427 3270.4905 4294308586
-185.28073 -1079.527 3270.5474 4294901245
-185.21509 -1079.5203 3270.6292 4294835709
-185.15211 -1079.5131 3270.6914 4294901502
-185.06435 -1079.4969 3270.7476 4293716714
-185.00352 -1079.4784 3270.8066 4289502620
-185.0721 -1079.3624 3270.7532 4280551939
-185.06279 -1079.3732 3270.8191 4280289281
-185.0874 -1079.2866 3270.7617 4280617475
-185.07973 -1079.2917 3270.8247 4280617988
-185.2303 -1079.5321 3270.699 4294901502
-185.19012 -1079.5286 3270.7769 4294901502
-185.12206 -1079.519 3270.8315 4294901502
-185.03358 -1079.5016 3270.8857 4292860891
-184.9847 -1079.4875 3270.9431 4289107348
-185.05511 -1079.3693 3270.8894 4280223491
-185.04289 -1079.3851 3270.9609 4280222982
-185.09355 -1079.2341 3270.8247 4280553729
-185.07487 -1079.2811 3270.8872 4280354562
-185.09412 -1079.2296 3270.8247 4280618754
-185.08681 -1079.2164 3270.9082 4280289283
-185.22876 -1079.5529 3270.8655 4280947500
-185.21706 -1079.5432 3270.8596 4293056463
-185.17438 -1079.5366 3270.9106 4294835452
-185.09717 -1079.5272 3270.9705 4294901502
-185.00743 -1079.5074 3271.0242 4292071375
-184.97075 -1079.5012 3271.0603 4291014562
-185.05328 -1079.3446 3270.9622 4280091909
-185.04091 -1079.3729 3271.0154 4279960835
-185.06805 -1079.2723 3270.9658 4279895298
-185.05948 -1079.2814 3271.0273 4280092165
-185.08163 -1079.2069 3270.9685 4279829762
-185.07661 -1079.198 3271.042 4280092165
-185.14932 -1079.6704 3271.0852 4284763714
-185.0981 -1079.6608 3271.0935 4285157690
-185.20476 -1079.5531 3271.0034 4294901241
-185.15475 -1079.5974 3271.0859 4285685581
-185.09991 -1079.58 3271.105 4287394915
-185.03654 -1079.5372 3271.1694 4294435276
-185.18674 -1079.5463 3270.9819 4294901502
-185.14635 -1079.5415 3271.0334 4294835708
-185.06036 -1079.5291 3271.0989 4294111208
-185.01266 -1079.5126 3271.1443 4290951857
-185.06349 -1079.2921 3271.1184 4280947209
-185.07628 -1079.1718 3271.0964 4280752144
-185.21078 -1079.6772 3271.0649 4283715401
-185.19557 -1079.6774 3271.0769 4285881676
-185.2224 -1079.6149 3271.0723 4285424978
-185.19823 -1079.5959 3271.085 4283711276
-185.0976 -1079.55 3271.1873 4292852898
-185.06775 -1079.5459 3271.239 4293773747
-185.05002 -1079.4491 3271.3064 4279633409
-185.09061 -1079.3832 3271.2871 4280620293
-185.11607 -1079.2749 3271.2769 4282001161
-185.10881 -1079.161 3271.1868 4281341742
-185.12061 -1079.2383 3271.2781 4282001946
-185.13878 -1079.1118 3271.2715 4281934616
-185.62314 -1079.6124 3270.9375 4292001977
-185.57895 -1079.6033 3270.9568 4292659648
-185.13332 -1079.5632 3271.2717 4290287488
-185.1091 -1079.5615 3271.3042 4292456858
-185.62268 -1079.5936 3270.9314 4292461503
-185.58076 -1079.5614 3270.9561 4289697419
-185.09494 -1079.4116 3271.3152 4279962626
-185.15477 -1079.2305 3271.3716 4282263052
-185.23083 -1079.7427 3271.3923 4279108877
-185.16769 -1079.6047 3271.4363 4284893993
-185.13307 -1079.5934 3271.4858 4279764228
-185.38895 -1079.5475 3271.2314 4293120701
-185.35176 -1079.5527 3271.2646 4293838753
-185.20132 -1079.1007 3271.4614 4281869579
-185.28986 -1079.8788 3271.4087 4281210628
-185.17841 -1079.8678 3271.4946 4280487967
-185.25891 -1079.8158 3271.4211 4282592019
-185.18828 -1079.8341 3271.5078 4281014542
-185.14673 -1079.7971 3271.5437 4281409035
-185.25642 -1079.754 3271.4048 4283511573
-185.17351 -1079.6877 3271.4766 4283249687
-185.13554 -1079.6952 3271.5232 4281868814
-185.16063 -1079.6344 3271.4751 4283448085
-185.13148 -1079.6228 3271.51 4281605640
-185.53485 -1079.5502 3271.3003 4281276174
-185.48465 -1079.5553 3271.3186 4283447846
-185.41148 -1079.5724 3271.3552 4286407223
-184.82172 -1079.4421 3271.8308 4278846466
-184.79124 -1079.4822 3271.8506 4282067487
-184.81221 -1079.3562 3271.8462 4279568398
-184.80637 -1079.3555 3271.8516 4279568650
-184.84282 -1079.1859 3271.8469 4279635970
-185.21349 -1079.1351 3271.5066 4282067739
-184.86649 -1079.0945 3271.832 4279570692
-185.21971 -1079.0425 3271.4946 4281606151
-184.98416 -1078.9468 3271.7791 4279964161
-185.30287 -1079.866 3271.5183 4282065696
-185.66621 -1079.6417 3271.3301 4283645752
-185.63609 -1079.6477 3271.3264 4278846722
-185.43114 -1079.5886 3271.4104 4281472776
-185.67964 -1079.5895 3271.3247 4282461482
-185.56456 -1079.5231 3271.3379 4280752140
-185.535 -1079.5188 3271.342 4279897862
-185.44682 -1079.5804 3271.438 4280750343
-184.92328 -1079.4742 3271.8079 4281935133
-184.85834 -1079.4639 3271.8411 4279635465
-184.79897 -1079.4657 3271.8601 4279307527
-185.19167 -1079.369 3271.689 4279569154
-185.13451 -1079.3962 3271.7146 4279766024
-185.05145 -1079.3894 3271.7607 4280817417
-184.95212 -1079.3859 3271.8027 4280554508
-184.86565 -1079.3805 3271.845 4279503878
-184.81322 -1079.3744 3271.8721 4279306756
-185.21899 -1079.3175 3271.6855 4280028167
-185.15514 -1079.3109 3271.7207 4279831558
-185.06567 -1079.3016 3271.7727 4280554504
-184.97223 -1079.2898 3271.8123 4280554249
-184.8797 -1079.282 3271.8528 4279701511
-184.82716 -1079.2733 3271.8806 4279504645
-185.23102 -1079.2261 3271.6934 4280291079
-185.17221 -1079.2206 3271.7307 4280356617
-185.08237 -1079.2067 3271.7847 4280291590
-184.99168 -1079.1931 3271.8232 4280488712
-184.89482 -1079.182 3271.8567 4279767046
-184.83646 -1079.1776 3271.8799 4279438852
-185.23438 -1079.1571 3271.7004 4281080844
-185.17052 -1079.101 3271.7512 4281144841
-185.08516 -1079.1073 3271.7974 4280554505
-185.00171 -1079.0944 3271.8264 4280225545
-184.90897 -1079.084 3271.8591 4279635719
-184.84877 -1079.075 3271.8896 4279504390
-185.16158 -1079.0504 3271.762 4281014540
-185.09766 -1079.004 3271.7996 4280620551
-185.01485 -1078.9918 3271.8286 4280291593
-184.92516 -1078.988 3271.864 4279701255
-184.86407 -1078.9814 3271.9009 4279111173
-185.11517 -1078.9373 3271.7947 4280686601
-185.03648 -1078.9349 3271.8264 4280226570
-184.94385 -1078.9293 3271.8696 4279570439
-184.87666 -1078.9242 3271.9001 4279374081
-185.37585 -1079.9078 3271.6265 4279897356
-185.71988 -1079.6517 3271.3616 4284237631
-185.74106 -1079.6019 3271.3586 4284040515
-185.48816 -1079.5933 3271.5181 4280882692
-185.06279 -1079.4327 3271.843 4280029708
-185.05388 -1079.4313 3271.8621 4279831829
-185.23705 -1079.3092 3271.6914 4280225028
-185.2444 -1079.2125 3271.7021 4280488198
-185.18008 -1079.2013 3271.7429 4280291592
-185.132 -1079.1832 3271.7803 4280225802
-185.26186 -1079.1184 3271.7173 4281409043
-185.1962 -1079.1119 3271.7559 4281014541
-185.12994 -1079.099 3271.7922 4280751370
-185.27893 -1079.0197 3271.7295 4281409044
-185.21359 -1079.0153 3271.7617 4281014799
-185.14456 -1079.0074 3271.7971 4280816906
-185.2877 -1078.9481 3271.7322 4281080342
-185.22267 -1078.9424 3271.771 4280751629
-185.15475 -1078.9498 3271.7949 4280554767
-185.19748 -1080.6509 3271.7949 4285415961
-184.85373 -1080.5953 3272.0457 4282855974
-184.78256 -1080.5737 3272.082 4282199585
-184.71336 -1080.5645 3272.1318 4281674267
-184.83487 -1080.5394 3272.0615 4279506965
-184.73073 -1080.527 3272.1292 4279897636
-185.5726 -1080.4294 3271.5203 4288715637
-185.52925 -1080.4191 3271.5222 4291340944
-185.48033 -1080.4153 3271.5994 4294830515
-185.50427 -1080.385 3271.5493 4290159261
-185.47165 -1080.3721 3271.6152 4291144862
-185.40013 -1079.9084 3271.6985 4279569693
-185.30127 -1079.8973 3271.7551 4281735446
-185.3718 -1079.8829 3271.7607 4283111941
-185.23279 -1079.8574 3271.8135 4280748802
-185.23262 -1079.7999 3271.8435 4281348183
-185.23038 -1079.7144 3271.8586 4281543215
-185.81389 -1079.6719 3271.4512 4284041024
-185.21422 -1079.6339 3271.8264 4280421898
-185.8161 -1079.6235 3271.4297 4283777331
-185.25754 -1079.5751 3271.8672 4280617220
-185.26732 -1080.687 3271.8 4287650082
-185.23285 -1080.6873 3271.8411 4286861354
-185.15794 -1080.693 3271.9473 4285155382
-185.07899 -1080.6803 3272 4282920211
-185.00095 -1080.6665 3272.0344 4282654998
-185.48419 -1080.6195 3271.729 4288962095
-185.41808 -1080.6195 3271.7673 4288239663
-185.30176 -1080.6256 3271.8074 4287517741
-185.24484 -1080.6362 3271.8372 4287386671
-185.15836 -1080.6537 3271.9526 4286275404
-185.0853 -1080.6368 3271.999 4284828473
-184.98297 -1080.6134 3272.0256 4283514415
-184.88898 -1080.5935 3272.0552 4282790696
-184.82236 -1080.5621 3272.0889 4281608227
-184.71384 -1080.5588 3272.1829 4280425493
-184.67838 -1080.599 3272.2095 4281674249
-185.57251 -1080.5909 3271.6838 4289161790
-185.48524 -1080.5931 3271.7314 4288502327
-185.41299 -1080.564 3271.7659 4286137632
-185.32651 -1080.5436 3271.801 4286203426
-185.25668 -1080.5382 3271.8398 4286532644
-185.63515 -1080.479 3271.6199 4288324212
-185.57756 -1080.4645 3271.585 4289234287
-185.49193 -1080.4236 3271.7024 4290606927
-185.40025 -1080.4447 3271.7871 4285152795
-185.33859 -1080.444 3271.8062 4285612571
-185.27045 -1080.4369 3271.8386 4285874468
-185.72586 -1080.3395 3271.5754 4290284708
-185.55908 -1080.3931 3271.6306 4284766043
-185.50029 -1080.3481 3271.709 4284238153
-185.43024 -1080.3818 3271.7791 4284563236
-185.33592 -1080.351 3271.8167 4285612061
-185.28554 -1080.338 3271.8391 4285808931
-185.51076 -1080.2659 3271.728 4282066437
-185.49445 -1080.2557 3271.7493 4281342732
-185.34534 -1080.243 3271.8357 4285874463
-185.29889 -1080.2418 3271.8442 4285480488
-185.36378 -1080.1456 3271.8455 4285808155
-185.32396 -1080.1412 3271.8616 4285085980
-185.52901 -1080.0968 3271.7524 4284178553
-185.38368 -1080.0465 3271.8564 4285544982
-185.34436 -1080.0439 3271.8752 4284691480
-186.21384 -1080.0045 3271.28 4291537049
-186.12129 -1079.99 3271.2949 4292129188
-186.07069 -1079.9894 3271.364 4291274905
-185.43637 -1079.9108 3271.7781 4279896088
-185.39185 -1079.957 3271.8647 4283770895
-185.35924 -1079.9436 3271.8843 4282786322
-186.22247 -1079.938 3271.2859 4288906618
-186.14676 -1079.9252 3271.3093 4289170307
-186.08765 -1079.9193 3271.3682 4287986544
-185.53331 -1079.8318 3271.7817 4282796819
-185.40268 -1079.8938 3271.8687 4283307268
-185.3802 -1079.8914 3271.8818 4282651915
-185.25397 -1079.8136 3271.9102 4282007659
-186.22957 -1079.8372 3271.3071 4285027152
-186.1709 -1079.8269 3271.332 4285093199
-186.12268 -1079.8334 3271.3738 4285025867
-185.59587 -1079.7341 3271.7483 4279963402
-185.56012 -1079.7474 3271.7776 4280688662
-185.25053 -1079.7568 3271.9072 4281416019
-186.23332 -1079.7694 3271.314 4285356371
-186.18311 -1079.7341 3271.3411 4285093974
-186.13155 -1079.7422 3271.3838 4284567886
-185.87054 -1079.6453 3271.4834 4283581239
-185.84123 -1079.7026 3271.481 4284040752
-185.59584 -1079.6792 3271.7529 4279568901
-186.19554 -1079.6569 3271.3499 4285422679
-186.14592 -1079.6473 3271.3845 4284102970
-185.87158 -1079.6367 3271.4836 4284105530
-185.28351 -1079.5715 3271.969 4280420873
-185.79115 -1080.7498 3271.6396 4289300598
-185.70758 -1080.7649 3271.687 4287393651
-185.61757 -1080.7601 3271.7371 4286144079
-185.53387 -1080.7483 3271.7805 4284894268
-185.4453 -1080.739 3271.8276 4284960570
-185.36996 -1080.7242 3271.8474 4285880129
-185.17989 -1080.6973 3271.9485 4284565818
-185.10649 -1080.6935 3271.9988 4281212951
-186.04404 -1080.6941 3271.4729 4291656536
-185.96689 -1080.6967 3271.5227 4292313692
-185.8793 -1080.6874 3271.5676 4291920992
-185.78912 -1080.6733 3271.6011 4292051813
-185.69528 -1080.6812 3271.6501 4290215263
-185.60687 -1080.6743 3271.6992 4288899665
-185.52824 -1080.6718 3271.7532 4287716930
-185.43974 -1080.6819 3271.814 4286668622
-185.37288 -1080.6765 3271.8445 4288445033
-185.27213 -1080.5914 3271.9736 4284560681
-185.18729 -1080.6394 3271.9548 4285880138
-185.11133 -1080.6074 3272.0088 4280490799
-185.03784 -1080.6187 3272.1016 4281807140
-184.96054 -1080.6176 3272.1946 4279898126
-184.8748 -1080.5959 3272.2737 4280227105
-184.8134 -1080.5839 3272.3179 4280162591
-184.73985 -1080.5659 3272.3542 4280162589
-186.05724 -1080.6584 3271.4634 4289226842
-185.96762 -1080.6495 3271.5234 4289161308
-185.8864 -1080.6366 3271.5701 4287978570
-185.79556 -1080.6223 3271.613 4287977799
-185.70143 -1080.6053 3271.6436 4287518011
-185.60779 -1080.5939 3271.6858 4286795062
-185.52885 -1080.5774 3271.7405 4284626468
-185.47124 -1080.5579 3271.8184 4280421385
-184.81425 -1080.5032 3272.3333 4282662217
-184.7551 -1080.4897 3272.3718 4282793803
-185.6449 -1080.5095 3271.7397 4291147417
-185.61125 -1080.505 3271.7769 4293236329
-185.43346 -1080.4714 3271.8262 4283182904
-185.29073 -1080.4054 3271.9429 4284301381
-184.815 -1080.4309 3272.3411 4284570217
-184.74783 -1080.399 3272.3892 4284701037
-185.87999 -1080.3621 3271.5793 4294704119
-185.81071 -1080.3557 3271.5996 4294242029
-185.76216 -1080.3605 3271.6194 4292727200
-185.54007 -1080.3606 3271.7759 4283648850
-185.53847 -1080.3707 3271.8328 4283319635
-185.30693 -1080.3557 3271.9707 4285027928
-184.76062 -1080.2852 3272.3943 4285491326
-185.88211 -1080.3402 3271.5803 4291804864
-185.82588 -1080.3312 3271.6001 4291146165
-185.75371 -1080.324 3271.5977 4290550670
-185.68117 -1080.2441 3271.7573 4284701017
-185.56413 -1080.2322 3271.8027 4282132998
-185.51616 -1080.2855 3271.8223 4281933095
-185.66307 -1080.1826 3271.7424 4283053845
-185.56857 -1080.1874 3271.7996 4281933331
-185.54027 -1080.2079 3271.8052 4281801998
-185.67786 -1080.1263 3271.7576 4283641950
-185.56335 -1080.0656 3271.7751 4283711036
-185.40727 -1080.0494 3271.8604 4285680179
-186.66316 -1080.0657 3271.083 4289038207
-186.65707 -1080.0847 3271.1123 4289170565
-186.25772 -1080.0016 3271.2886 4290747793
-186.07407 -1079.9873 3271.4585 4290221710
-186.07901 -1079.9971 3271.4866 4291141532
-185.56866 -1079.9926 3271.7756 4285422706
-185.57021 -1079.9784 3271.8071 4282327355
-185.41225 -1079.9379 3271.8711 4282719754
-185.30763 -1079.8944 3271.9597 4281673250
-186.68915 -1079.9858 3271.085 4288774778
-186.67163 -1080.0288 3271.116 4288316023
-186.25525 -1079.8942 3271.3008 4285027412
-186.09583 -1079.9259 3271.4619 4286605150
-186.08824 -1079.9155 3271.488 4283580240
-185.73376 -1079.8632 3271.7686 4284306725
-185.6223 -1079.8503 3271.7832 4281939496
-185.55733 -1079.8307 3271.79 4282334746
-185.40002 -1079.8944 3271.885 4283175939
-185.39275 -1079.8937 3271.8901 4282979845
-185.28819 -1079.8761 3272.0034 4281614423
-186.72379 -1079.9014 3271.085 4288906617
-186.2579 -1079.8583 3271.311 4285355088
-186.11905 -1079.8243 3271.4294 4283843391
-185.79393 -1079.7546 3271.7258 4281742108
-185.70801 -1079.7751 3271.7209 4280951310
-185.62529 -1079.7786 3271.7625 4281213190
-185.56995 -1079.7844 3271.7969 4281541652
-186.73943 -1079.8191 3271.0862 4288970871
-186.26805 -1079.7415 3271.3306 4285226332
-186.20383 -1079.7128 3271.3604 4285028695
-186.13654 -1079.7202 3271.4287 4283712830
-185.79022 -1079.7126 3271.7122 4282264586
-185.71228 -1079.6844 3271.7153 4280357900
-185.63943 -1079.6677 3271.75 4279897605
-184.84848 -1079.5472 3272.3977 4279307269
-186.26794 -1079.6715 3271.3337 4285817954
-186.21344 -1079.6564 3271.3655 4285422676
-186.15439 -1079.6539 3271.4348 4283515446
-185.71843 -1079.5969 3271.7251 4280554250
-185.65482 -1079.5938 3271.761 4280751365
-184.84213 -1079.5389 3272.3701 4279307521
-186.4689 -1080.9268 3271.2595 4286728243
-186.40111 -1080.9181 3271.292 4284822301
-186.31328 -1080.9188 3271.3765 4285023543
-186.15639 -1080.8899 3271.4783 4286147947
-186.07567 -1080.8826 3271.5374 4284765268
-186.46707 -1080.8728 3271.2622 4287779893
-186.41313 -1080.8618 3271.2856 4285741854
-186.3262 -1080.8414 3271.3784 4288640622
-186.25002 -1080.8174 3271.4316 4286866791
-186.16628 -1080.8163 3271.4731 4287196263
-186.08165 -1080.8223 3271.5186 4287064676
-185.99046 -1080.809 3271.571 4288182895
-185.90671 -1080.8099 3271.6165 4287261288
-185.82069 -1080.7969 3271.6611 4287917671
-185.73183 -1080.7943 3271.6882 4286802279
-185.66068 -1080.7893 3271.7358 4286207067
-185.28304 -1080.7361 3272.0977 4280621596
-186.93835 -1080.8416 3270.9651 4284952859
-186.58679 -1080.7719 3271.2014 4285872423
-186.50253 -1080.7635 3271.252 4285675557
-186.4174 -1080.7614 3271.3003 4286924327
-186.33693 -1080.7482 3271.356 4287385393
-186.2444 -1080.7362 3271.3989 4288764729
-186.15138 -1080.7281 3271.4365 4290210636
-186.07104 -1080.734 3271.4802 4291328605
-185.9839 -1080.7349 3271.5381 4290871145
-185.88777 -1080.7429 3271.5994 4289625973
-185.81161 -1080.7363 3271.6536 4289100407
-185.75446 -1080.7354 3271.6714 4288445047
-185.27657 -1080.6606 3272.0056 4283441449
-185.24258 -1080.6586 3272.0627 4280360225
-185.17746 -1080.6567 3272.1226 4279700764
-185.09657 -1080.6305 3272.2231 4280753707
-185.02573 -1080.6165 3272.2659 4280819749
-184.92935 -1080.5956 3272.2888 4280687911
-184.8519 -1080.5765 3272.3181 4280687652
-184.71489 -1080.5432 3272.407 4280493858
-186.57179 -1080.6882 3271.2351 4285149716
-186.5145 -1080.6764 3271.2581 4285017882
-186.43608 -1080.6667 3271.3083 4285610015
-186.36699 -1080.6584 3271.3499 4283114260
-186.2623 -1080.6898 3271.4177 4281801250
-186.16231 -1080.672 3271.4482 4283772973
-186.0816 -1080.6608 3271.5073 4283246893
-185.9959 -1080.6425 3271.5498 4283181605
-185.93558 -1080.6348 3271.6206 4281735957
-185.85286 -1080.6248 3271.6802 4281405457
-185.71414 -1080.5996 3271.7473 4281407250
-185.69353 -1080.5902 3271.7776 4281868306
-185.61447 -1080.5819 3271.8252 4281079303
-185.50851 -1080.568 3271.8718 4279830790
-185.09013 -1080.5604 3272.2515 4283713617
-185.03017 -1080.519 3272.2839 4284568670
-184.94576 -1080.5062 3272.3044 4284108124
-184.86249 -1080.4907 3272.3276 4283647833
-184.77408 -1080.4578 3272.3789 4283977827
-186.52705 -1080.5859 3271.2671 4284821530
-186.44666 -1080.5771 3271.3169 4285478944
-186.38739 -1080.5824 3271.3525 4283114001
-185.57858 -1080.4871 3271.8352 4292058730
-185.56226 -1080.4814 3271.907 4284104238
-185.48863 -1080.4941 3271.9419 4280690461
-185.33444 -1080.4121 3272.0586 4284961880
-185.3439 -1080.4318 3272.0889 4285289304
-185.02979 -1080.4165 3272.2976 4286147451
-184.96837 -1080.4089 3272.3262 4285884539
-184.87216 -1080.3998 3272.3606 4285227125
-184.78868 -1080.3815 3272.385 4284898931
-185.92821 -1080.3965 3271.6489 4292992224
-185.87563 -1080.3966 3271.6765 4292061587
-185.59673 -1080.3866 3271.8718 4283318591
-185.04211 -1080.3171 3272.3013 4287003282
-184.98199 -1080.3134 3272.3374 4286805904
-184.8956 -1080.3022 3272.3757 4286148488
-184.79787 -1080.2889 3272.4041 4285753988
-185.86084 -1080.3383 3271.656 4288710299
-185.71495 -1080.27 3271.865 4284108876
-185.61617 -1080.2408 3271.8367 4283974163
-185.56696 -1080.2374 3271.8955 4284439387
-185.34993 -1080.2448 3272.0249 4284762705
-185.05489 -1080.2219 3272.304 4287332506
-184.99777 -1080.2169 3272.3423 4282921531
-184.91158 -1080.208 3272.3882 4282461748
-184.81235 -1080.1921 3272.425 4282133037
-184.76355 -1080.1633 3272.4387 4281014288
-185.71898 -1080.1854 3271.7976 4287134035
-185.61908 -1080.2194 3271.8501 4283183135
-185.57072 -1080.2212 3271.8789 4281668375
-185.38368 -1080.1556 3272.0859 4284633696
-185.06682 -1080.1215 3272.3059 4287201179
-185.01091 -1080.1147 3272.3447 4282790196
-184.93347 -1080.1102 3272.3982 4283186242
-184.83812 -1080.0963 3272.4395 4282725947
-184.78371 -1080.0837 3272.4624 4282791227
-185.45247 -1080.0957 3271.9685 4285814848
-185.07738 -1080.0199 3272.3125 4287069334
-185.02808 -1080.0236 3272.3442 4284698457
-184.94565 -1080.0067 3272.4026 4284831335
-184.84947 -1079.9991 3272.4509 4283909710
-184.79541 -1079.9886 3272.4624 4284371549
-186.67781 -1080.0535 3271.1213 4288577647
-186.66832 -1080.0713 3271.177 4288708979
-186.10713 -1079.9918 3271.5312 4290026659
-185.51257 -1079.9253 3271.9702 4281610294
-185.35721 -1079.9203 3272.1047 4281081372
-185.08858 -1079.9333 3272.3137 4286806676
-185.03522 -1079.9171 3272.3538 4286544019
-184.95572 -1079.9083 3272.406 4286215055
-184.86783 -1079.901 3272.4592 4285951627
-184.81303 -1079.8864 3272.4792 4285820041
-186.70258 -1079.9805 3271.1328 4288511857
-186.6933 -1079.9908 3271.1829 4288576879
-186.11894 -1079.9304 3271.5237 4287131503
-186.12656 -1079.9706 3271.5505 4289370769
-185.8154 -1079.8612 3271.76 4281478678
-185.75577 -1079.8654 3271.7993 4282597181
-185.69751 -1079.8497 3271.8401 4280624408
-185.62085 -1079.8661 3271.9282 4280032540
-185.32843 -1079.8326 3272.1619 4284573039
-185.10599 -1079.8019 3272.3196 4282523421
-185.06105 -1079.8055 3272.354 4282460722
-184.95464 -1079.8248 3272.4182 4283844438
-184.88025 -1079.801 3272.4648 4283318854
-184.8266 -1079.7925 3272.489 4283187527
-186.73296 -1079.8881 3271.1362 4288577907
-186.72018 -1079.92 3271.1953 4288511854
-185.82651 -1079.8113 3271.7703 4280557061
-185.7928 -1079.8236 3271.792 4280953879
-185.70345 -1079.829 3271.8301 4280228354
-185.11949 -1079.7129 3272.3076 4280489227
-185.05945 -1079.7024 3272.3538 4280423180
-184.98308 -1079.6958 3272.4045 4280421382
-184.88838 -1079.6964 3272.4587 4280487690
-184.83415 -1079.7128 3272.4834 4280817173
-186.74768 -1079.8198 3271.1382 4288709490
-185.23865 -1079.6178 3272.2498 4280486404
-185.12723 -1079.6312 3272.3157 4280292618
-185.06921 -1079.6179 3272.3491 4280226058
-184.98805 -1079.6102 3272.407 4280620050
-184.89664 -1079.6005 3272.4551 4280555027
-184.84653 -1079.5945 3272.4744 4280158726
-186.74324 -1079.7394 3271.1992 4282850837
-185.24892 -1079.5333 3272.2463 4281146903
-185.18185 -1079.5209 3272.2861 4279502594
-185.00101 -1079.5587 3272.3979 4279699971
-184.8989 -1079.5482 3272.4636 4279308036
-186.76764 -1080.9824 3271.1733 4283907120
-186.70604 -1080.9746 3271.1924 4284501326
-186.64606 -1080.9475 3271.2324 4283712831
-186.51765 -1080.9456 3271.283 4284301636
-186.40114 -1080.9319 3271.3618 4281473310
-186.32918 -1080.9208 3271.3962 4283185717
-186.27344 -1080.9137 3271.4546 4283844161
-186.18794 -1080.9003 3271.4856 4284239170
-185.28763 -1080.8136 3272.1333 4279964177
-186.9557 -1080.8811 3271.0583 4285282608
-186.89264 -1080.8746 3271.0859 4284626229
-186.78183 -1080.8719 3271.1509 4284365883
-186.70015 -1080.8955 3271.2102 4283974211
-186.6228 -1080.8723 3271.2393 4284236351
-186.52905 -1080.8859 3271.2852 4284497467
-186.41269 -1080.8726 3271.363 4280421906
-186.35172 -1080.8639 3271.3877 4285683283
-186.27568 -1080.8646 3271.4561 4285879631
-186.19533 -1080.8662 3271.4844 4286010695
-186.0182 -1080.8441 3271.5984 4282333824
-185.29402 -1080.7595 3272.127 4280161302
-185.10516 -1080.6866 3272.2554 4280095521
-187.01453 -1080.8066 3271.002 4283836437
-186.95697 -1080.8231 3271.0225 4284821786
-186.87273 -1080.8129 3271.0842 4284756256
-186.78506 -1080.8029 3271.1326 4284624926
-186.69586 -1080.7946 3271.1704 4285741606
-186.60609 -1080.7804 3271.2087 4285544226
-186.40135 -1080.812 3271.3569 4287774507
-186.37 -1080.7506 3271.4001 4282589734
-186.34348 -1080.7128 3271.4561 4279830275
-185.28984 -1080.6406 3272.1362 4280818978
-185.21509 -1080.6364 3272.1824 4280687651
-185.13011 -1080.629 3272.23 4280950314
-185.07944 -1080.6304 3272.2627 4281015333
-186.59579 -1080.6895 3271.2471 4284492573
-186.55748 -1080.6396 3271.252 4285215774
-186.38074 -1080.6656 3271.4243 4279830534
-186.28059 -1080.6891 3271.4626 4280420873
-186.21033 -1080.683 3271.5454 4281078543
-186.14395 -1080.6735 3271.5808 4281341455
-186.06966 -1080.6581 3271.6262 4281342217
-185.9888 -1080.6462 3271.677 4281473810
-185.90228 -1080.6385 3271.7524 4281669912
-185.75276 -1080.615 3271.8105 4281538839
-185.75151 -1080.6141 3271.8928 4282198060
-185.66447 -1080.5948 3271.9536 4282395694
-185.59848 -1080.5714 3272.0198 4282659894
-185.54625 -1080.562 3272.0483 4282528042
-185.29907 -1080.5459 3272.1382 4284107855
-185.2227 -1080.5399 3272.1853 4284765277
-185.1414 -1080.5312 3272.2363 4285028196
-185.07089 -1080.5212 3272.2808 4284831844
-186.59669 -1080.6085 3271.2566 4284755995
-186.53789 -1080.5731 3271.2783 4285479201
-186.47495 -1080.5482 3271.3438 4283114772
-186.41383 -1080.5699 3271.4155 4280815371
-185.6806 -1080.4667 3271.9832 4284897115
-185.59193 -1080.4803 3272.0334 4284633692
-185.54453 -1080.4639 3272.0579 4283317824
-185.31412 -1080.4492 3272.1438 4285226344
-185.23537 -1080.4403 3272.1838 4286081141
-185.15399 -1080.4315 3272.24 4286344062
-185.08194 -1080.423 3272.2856 4286278783
-186.54266 -1080.4756 3271.3162 4286005023
-186.49736 -1080.4727 3271.3523 4283179542
-186.00938 -1080.3939 3271.7329 4291347671
-185.91513 -1080.3734 3271.769 4285619322
-185.86816 -1080.3672 3271.7693 4285159289
-185.6944 -1080.3875 3271.9702 4287788390
-185.60251 -1080.3967 3272.0396 4284897119
-185.534 -1080.3726 3272.0754 4283976275
-185.4771 -1080.3618 3272.0923 4283185981
-185.33197 -1080.3512 3272.1453 4285161064
-185.24782 -1080.3409 3272.1853 4286213247
-185.16528 -1080.3333 3272.2388 4286805900
-185.09331 -1080.3253 3272.2883 4287200662
-186.55415 -1080.3795 3271.3179 4284953626
-186.51361 -1080.3739 3271.3572 4283311640
-185.73404 -1080.2751 3271.8696 4283311628
-185.68668 -1080.3118 3271.9309 4289962134
-185.60728 -1080.2955 3272.0466 4284964706
-185.54303 -1080.2795 3272.0864 4284766304
-185.49228 -1080.2714 3272.1042 4283581753
-185.34998 -1080.2534 3272.1541 4285161070
-185.26414 -1080.2423 3272.1968 4286279554
-185.17657 -1080.2327 3272.241 4287069333
-185.10612 -1080.225 3272.2893 4287529886
-185.01651 -1080.2001 3272.3523 4281803298
-186.57007 -1080.2762 3271.3267 4284954143
-186.52837 -1080.2761 3271.3623 4284034851
-185.72171 -1080.2061 3271.9421 4285426809
-185.65338 -1080.2012 3271.9814 4281475605
-185.54971 -1080.1825 3272.0994 4287133835
-185.49847 -1080.2014 3272.1006 4284171316
-185.36607 -1080.1526 3272.1655 4284964203
-185.2774 -1080.1439 3272.1995 4286016897
-185.19025 -1080.1346 3272.248 4286872213
-185.11778 -1080.1262 3272.2925 4287267228
-185.0238 -1080.1235 3272.3555 4281473808
-184.92365 -1080.1086 3272.4292 4283647830
-184.90587 -1080.1113 3272.4551 4283977046
-186.75856 -1080.2079 3271.2805 4280422413
-186.5853 -1080.1775 3271.3325 4285150238
-186.54492 -1080.1743 3271.3677 4284363551
-185.64558 -1080.0828 3271.9685 4283384404
-185.55284 -1080.0872 3272.1082 4288515752
-185.48421 -1080.0739 3272.1169 4286671978
-185.38789 -1080.0543 3272.175 4284635498
-185.29315 -1080.0444 3272.2122 4285819518
-185.20328 -1080.0354 3272.2517 4286740625
-185.12825 -1080.0308 3272.2979 4287135128
-185.01894 -1079.9919 3272.373 4286674833
-184.96452 -1080.0229 3272.407 4283514691
-184.89722 -1080.0135 3272.4541 4283512855
-186.7691 -1080.141 3271.25 4282130707
-186.68329 -1080.0775 3271.2734 4288115810
-186.62927 -1080.087 3271.3394 4286007084
-186.56004 -1080.0771 3271.3713 4284165919
-185.67276 -1080.0159 3272.0017 4282061622
-185.60173 -1079.9773 3272.0737 4283713872
-185.39687 -1079.9727 3272.1794 4282924875
-185.31203 -1079.947 3272.2263 4285293691
-185.21904 -1079.9365 3272.2603 4286543247
-185.14223 -1079.9269 3272.3086 4286806676
-185.04437 -1079.9191 3272.3665 4286609298
-184.99239 -1079.9231 3272.3987 4286346386
-184.9135 -1079.8628 3272.459 4285952648
-186.7081 -1079.9926 3271.2759 4288182371
-186.62337 -1079.9882 3271.353 4285018639
-186.57578 -1079.9792 3271.3875 4284560160
-186.54123 -1079.9486 3271.4514 4286076482
-186.09189 -1079.8973 3271.7563 4286143304
-185.81795 -1079.9039 3271.9114 4294571735
-185.72153 -1079.8843 3271.9717 4288447597
-185.63155 -1079.88 3272.0037 4281740590
-185.31801 -1079.8517 3272.2373 4285228152
-185.23827 -1079.8398 3272.2742 4286083209
-185.14914 -1079.8308 3272.3213 4285951359
-185.05635 -1079.8241 3272.3679 4283054141
-184.98488 -1079.8051 3272.4182 4282527798
-184.91603 -1079.7954 3272.47 4282726202
-186.75784 -1079.8715 3271.2012 4288774515
-186.73784 -1079.8955 3271.2605 4288445289
-186.63618 -1079.8854 3271.3589 4284558605
-186.59344 -1079.8837 3271.3831 4283178509
-186.53961 -1079.8972 3271.4575 4286334515
-185.9147 -1079.7966 3271.853 4285677119
-185.32782 -1079.7554 3272.2488 4284899188
-185.25769 -1079.743 3272.2852 4285819778
-185.17506 -1079.7385 3272.3284 4285292911
-185.06651 -1079.7552 3272.376 4281077771
-184.98001 -1079.7448 3272.4363 4280814605
-184.92526 -1079.7402 3272.4666 4280616966
-186.77309 -1079.7908 3271.2043 4288446320
-186.76622 -1079.8007 3271.2632 4288051305
-186.64754 -1079.7843 3271.3599 4286732867
-186.60881 -1079.7837 3271.3867 4284759086
-185.31523 -1079.6487 3272.2285 4280751374
-185.25204 -1079.6439 3272.2639 4281474329
-185.18021 -1079.6364 3272.3081 4281475869
-185.11818 -1079.5936 3272.3484 4279963917
-186.2561 -1079.6628 3271.6765 4281079824
-185.33357 -1079.5554 3272.2397 4280620303
-185.26521 -1079.5507 3272.2607 4281079314
-185.20679 -1079.5416 3272.3091 4280290825
-186.8759 -1081.0001 3271.1787 4282332980
-186.82852 -1081.0155 3271.1785 4283977290
-186.71451 -1080.9498 3271.2363 4282132521
-187.0726 -1080.9363 3271.071 4282918193
-187.00465 -1080.922 3271.0737 4284039735
-186.8358 -1080.9285 3271.178 4283843139
-186.72729 -1080.9414 3271.2444 4284368698
-186.97325 -1080.7896 3271.1101 4280684305
-186.93518 -1080.7961 3271.1733 4281078803
-186.8432 -1080.7817 3271.1667 4279766560
-186.79115 -1080.7764 3271.3123 4280816409
-186.423 -1080.726 3271.5332 4278977284
-186.31221 -1080.7153 3271.6272 4280618513
-186.18855 -1080.7002 3271.7068 4280816401
-186.11163 -1080.6952 3271.7852 4281605406
-186.03665 -1080.6814 3271.8159 4281671971
-186.71988 -1080.6958 3271.3289 4284298025
-186.42604 -1080.6666 3271.519 4279501828
-186.26494 -1080.6993 3271.6135 4280618520
-186.20786 -1080.6884 3271.7061 4282133037
-186.13316 -1080.6467 3271.7751 4283581519
-186.05843 -1080.6322 3271.8186 4283844435
-185.96854 -1080.6224 3271.8599 4283712591
-185.87669 -1080.6057 3271.8972 4283778895
-185.78818 -1080.5892 3271.9365 4284106830
-185.71829 -1080.6063 3271.9619 4286602300
-186.64983 -1080.5931 3271.3313 4282654488
-186.62563 -1080.5774 3271.3362 4283379511
-186.52539 -1080.548 3271.4675 4279371780
-186.45903 -1080.5815 3271.5139 4280355594
-186.14374 -1080.5544 3271.7788 4285884279
-186.07452 -1080.5348 3271.8269 4286278521
-185.98993 -1080.5293 3271.8777 4286277752
-185.89108 -1080.5122 3271.9077 4286015093
-185.79839 -1080.5012 3271.9465 4285883506
-185.72885 -1080.4733 3271.9731 4285818483
-185.625 -1080.475 3272.0378 4285225060
-186.5359 -1080.4803 3271.4688 4280552716
-186.05249 -1080.3969 3271.8567 4287068301
-186.01064 -1080.4031 3271.8838 4287462283
-185.90433 -1080.4083 3271.9158 4286674307
-185.81784 -1080.4067 3271.9646 4286476159
-185.72966 -1080.4075 3271.9858 4286541171
-185.61003 -1080.3536 3272.0598 4285159782
-185.49362 -1080.3307 3272.1472 4284236323
-186.54756 -1080.3826 3271.4712 4281735188
-186.064 -1080.3369 3271.8638 4287595160
-186.00963 -1080.3384 3271.8931 4287397780
-185.92523 -1080.3168 3271.9268 4287331986
-185.84193 -1080.3179 3271.9697 4286410619
-185.74232 -1080.2938 3272.0107 4285621101
-185.63072 -1080.2572 3272.0632 4285490285
-185.58699 -1080.2518 3272.0872 4285358445
-186.56453 -1080.2806 3271.4724 4282327579
-185.94156 -1080.2211 3271.9353 4291082706
-185.86273 -1080.2078 3271.9736 4290095291
-185.75136 -1080.1929 3272.0276 4288911280
-185.66057 -1080.1906 3272.0696 4287135120
-185.60158 -1080.1669 3272.0938 4288318885
-186.80368 -1080.1986 3271.2786 4279962894
-186.77426 -1080.1917 3271.304 4280950303
-186.58046 -1080.1836 3271.4734 4282393376
-185.95486 -1080.1224 3271.9456 4291346654
-185.86415 -1080.1084 3271.988 4289963203
-185.77364 -1080.0972 3272.032 4288517300
-185.67345 -1080.0823 3272.0867 4287135381
-185.60468 -1080.0712 3272.1155 4287003025
-185.55463 -1080.0295 3272.1484 4287594639
-186.89307 -1080.1433 3271.22 4290025115
-186.8056 -1080.1531 3271.2925 4281213228
-186.74232 -1080.1013 3271.3147 4283055149
-186.69386 -1080.0789 3271.3611 4286932048
-186.59076 -1080.0831 3271.4719 4282657834
-185.95993 -1080.0122 3271.9517 4289502634
-185.87683 -1080.006 3271.99 4288648107
-185.79649 -1079.9973 3272.0381 4287792285
-185.68968 -1079.986 3272.093 4287332508
-185.6116 -1079.9928 3272.1284 4284569446
-185.56133 -1079.9904 3272.1555 4284633434
-186.72653 -1079.994 3271.3472 4287392601
-186.70967 -1079.998 3271.374 4286075709
-186.57834 -1079.9893 3271.4558 4287522643
-186.55034 -1079.9685 3271.4954 4285157704
-186.12033 -1079.9016 3271.7795 4287656296
-185.94983 -1079.9312 3271.9524 4283579199
-185.88318 -1079.9346 3271.9763 4287330433
-185.78773 -1079.9301 3272.0369 4287462293
-185.70488 -1079.9264 3272.0925 4286937750
-185.64204 -1079.9165 3272.1213 4284436822
-186.76021 -1079.8929 3271.363 4287195992
-186.7352 -1079.9069 3271.395 4285418035
-186.58594 -1079.8837 3271.449 4286866004
-186.53857 -1079.8765 3271.489 4284694064
-186.1252 -1079.8813 3271.7898 4283914602
-186.08073 -1079.8024 3271.8999 4285749853
-186.00192 -1079.801 3271.9309 4286735215
-186.78354 -1079.8033 3271.363 4286999127
-186.73961 -1079.8176 3271.3955 4285813834
-186.59685 -1079.7755 3271.4675 4287328613
-186.55682 -1079.7783 3271.4934 4287325262
-186.28705 -1079.7275 3271.7073 4280949785
-186.2455 -1079.7108 3271.7122 4279832849
-186.09131 -1079.7588 3271.8904 4287987308
-186.00664 -1079.7491 3271.9392 4288182644
-186.78844 -1079.7476 3271.3257 4284694577
-186.61293 -1079.7234 3271.4846 4285091134
-186.56253 -1079.7152 3271.5056 4286406987
-186.29285 -1079.6862 3271.7129 4279567876
-186.26083 -1079.6843 3271.7419 4281672980
-187.15555 -1081.1033 3271.0779 4278715663
-187.14691 -1081.1024 3271.0837 4279109133
-187.2016 -1081.0598 3271.1111 4279109390
-187.15793 -1081.0686 3271.1191 4279963414
-187.23303 -1081.0035 3271.1128 4280356385
-187.13091 -1080.9814 3271.1255 4282919221
-187.06305 -1080.8276 3271.2437 4280093201
-186.98039 -1080.8057 3271.2021 4280488462
-186.85893 -1080.7876 3271.3879 4281475375
-186.46744 -1080.7385 3271.6196 4280028428
-186.42651 -1080.7351 3271.6531 4281475107
-186.33458 -1080.718 3271.6763 4281738274
-186.26392 -1080.7061 3271.7002 4281739045
-186.16452 -1080.7002 3271.7776 4282199324
-186.85342 -1080.7498 3271.4014 4282792005
-186.758 -1080.6641 3271.3721 4284362284
-186.47446 -1080.6798 3271.6125 4279963411
-186.43707 -1080.676 3271.6582 4282594885
-186.34023 -1080.6646 3271.6946 4283515984
-186.2466 -1080.6489 3271.7324 4283844694
-186.17401 -1080.6359 3271.7751 4284238937
-186.11345 -1080.6165 3271.8108 4284567394
-186.76187 -1080.593 3271.4563 4285222488
-186.70235 -1080.5793 3271.418 4285615691
-186.55566 -1080.554 3271.5369 4279502340
-186.52988 -1080.5692 3271.6157 4282199866
-186.44893 -1080.5765 3271.6633 4284371299
-186.3575 -1080.5635 3271.7021 4285555573
-186.26192 -1080.5543 3271.7461 4286015608
-186.17207 -1080.5424 3271.7891 4286278778
-186.09795 -1080.5111 3271.8381 4286870402
-186.00766 -1080.4791 3271.8955 4294112762
-186.75764 -1080.553 3271.4578 4285221962
-186.5706 -1080.488 3271.5479 4280684045
-186.55362 -1080.4843 3271.6333 4283977052
-186.46654 -1080.4767 3271.677 4285555834
-186.36888 -1080.4656 3271.7124 4286410882
-186.28091 -1080.4565 3271.7605 4286739848
-186.19237 -1080.4465 3271.8032 4286871433
-186.11647 -1080.4312 3271.8408 4287134345
-186.01157 -1080.4098 3271.907 4286410102
-186.58917 -1080.3849 3271.5576 4281275921
-186.56596 -1080.385 3271.637 4284831850
-186.47824 -1080.3761 3271.6836 4286871182
-186.38461 -1080.3684 3271.7224 4287595161
-186.29831 -1080.3564 3271.77 4287858588
-186.21724 -1080.3475 3271.8203 4287924381
-186.11893 -1080.3406 3271.8589 4287595416
-186.04742 -1080.3097 3271.9001 4287463574
-186.60193 -1080.288 3271.5608 4281802009
-186.58595 -1080.2914 3271.6326 4285095280
-186.4884 -1080.2792 3271.686 4289306050
-186.40285 -1080.2692 3271.7332 4290622421
-186.31093 -1080.2565 3271.7729 4291412192
-186.23248 -1080.2491 3271.8281 4291872997
-186.1429 -1080.2426 3271.8762 4291807201
-186.04839 -1080.2294 3271.916 4291806687
-186.90088 -1080.192 3271.4014 4285032315
-186.61996 -1080.1887 3271.5654 4282064663
-186.58295 -1080.2133 3271.6438 4285884030
-186.49397 -1080.1835 3271.6917 4288977340
-186.41856 -1080.1693 3271.7393 4289898699
-186.33456 -1080.1597 3271.7886 4290622677
-186.25426 -1080.1505 3271.8459 4291149019
-186.15971 -1080.1448 3271.8879 4291412190
-186.07138 -1080.1339 3271.9343 4291543777
-186.01271 -1080.0975 3271.9453 4291280347
-187.30804 -1080.1218 3271.1348 4286804339
-187.26988 -1080.1263 3271.1489 4286079331
-186.96269 -1080.1737 3271.3223 4292593091
-186.8167 -1080.1516 3271.4177 4289431425
-186.63144 -1080.0907 3271.5649 4283118133
-186.61156 -1080.1194 3271.613 4290487441
-186.4837 -1080.1171 3271.7021 4290025906
-186.41829 -1080.1067 3271.7363 4290357434
-186.33772 -1080.0688 3271.8174 4289964490
-186.26721 -1080.0511 3271.8535 4290161871
-186.17516 -1080.0452 3271.9014 4290754262
-186.0844 -1080.0345 3271.938 4290754261
-186.01418 -1080.0366 3271.9558 4290754004
-185.84697 -1080.0492 3272.0603 4284162387
-185.77582 -1079.9839 3272.1135 4288385699
-187.31456 -1080.0999 3271.134 4289237129
-187.27255 -1080.1003 3271.1318 4286278494
-186.60408 -1080.0273 3271.5308 4287326811
-186.60181 -1080.0231 3271.5552 4286143072
-186.34035 -1079.9814 3271.8245 4288648629
-186.2834 -1079.9623 3271.8508 4288451761
-186.18884 -1079.9647 3271.9087 4290029766
-186.10451 -1079.9364 3271.9519 4289635268
-186.01605 -1079.9227 3271.9666 4289043127
-187.32497 -1079.9595 3271.1294 4288512625
-187.28958 -1079.939 3271.157 4289103736
-187.03067 -1079.9463 3271.2505 4282204253
-186.37898 -1079.8301 3271.8218 4287529624
-186.29459 -1079.859 3271.8706 4285950850
-186.20396 -1079.8442 3271.9119 4284042585
-186.11179 -1079.8407 3271.9482 4287398037
-186.02953 -1079.8408 3271.9727 4287791252
-187.27945 -1079.8966 3271.1748 4290354061
-186.80919 -1079.7938 3271.4297 4285946954
-186.35474 -1079.7603 3271.7832 4282133562
-186.29874 -1079.7916 3271.8682 4284501844
-186.22122 -1079.7853 3271.9197 4284106569
-186.1059 -1079.7722 3271.9414 4286279798
-186.01149 -1079.7668 3271.9783 4286869117
-186.35965 -1079.7081 3271.759 4279830027
-187.22847 -1081.0359 3271.1477 4280028703
-187.19858 -1081.0439 3271.1504 4279899430
-187.32805 -1080.8506 3271.1816 4280819494
-187.22337 -1080.8374 3271.2515 4281213236
-187.14229 -1080.83 3271.2988 4281147952
-187.05336 -1080.813 3271.3394 4281607738
-186.96458 -1080.8004 3271.3787 4281740081
-186.89615 -1080.783 3271.394 4282331200
-187.29776 -1080.7792 3271.207 4282529097
-187.22987 -1080.7512 3271.2581 4283055192
-187.15477 -1080.7576 3271.3066 4282793041
-187.06059 -1080.7426 3271.3503 4283186516
-186.98039 -1080.7344 3271.3892 4283253076
-186.88425 -1080.7181 3271.4143 4283712598
-186.82674 -1080.6713 3271.4443 4283773998
-187.22839 -1080.682 3271.2688 4283910765
-187.16257 -1080.6605 3271.3118 4284109159
-187.08194 -1080.6469 3271.3572 4284503404
-186.99211 -1080.6327 3271.4001 4284766318
-186.89169 -1080.6234 3271.4338 4284963440
-186.82567 -1080.6134 3271.4695 4285225838
-187.24178 -1080.5732 3271.2715 4284634997
-187.16934 -1080.5796 3271.3162 4284635247
-187.09813 -1080.5496 3271.3677 4285095291
-187.01367 -1080.5404 3271.4163 4285358203
-186.91667 -1080.5238 3271.4541 4285489788
-186.84009 -1080.5203 3271.4861 4285226096
-186.60794 -1080.5204 3271.6147 4281869095
-186.59099 -1080.4801 3271.6233 4283780703
-187.2388 -1080.5101 3271.2844 4284769151
-187.17523 -1080.4879 3271.3235 4285096570
-187.10776 -1080.4695 3271.3699 4286081928
-187.02335 -1080.4473 3271.4175 4286082951
-186.93118 -1080.4434 3271.4631 4285359231
-186.86258 -1080.4196 3271.5022 4286278528
-186.59898 -1080.4038 3271.6262 4284044389
-187.10504 -1080.3384 3271.3843 4287528600
-187.03163 -1080.3472 3271.4167 4287069600
-186.94234 -1080.3302 3271.4692 4286806429
-186.87933 -1080.321 3271.5117 4287398045
-186.59019 -1080.2913 3271.6511 4285621885
-186.53943 -1080.3118 3271.6853 4289107136
-187.27446 -1080.2386 3271.2871 4289296767
-187.24179 -1080.2367 3271.2966 4289168267
-187.06635 -1080.2217 3271.4204 4281928455
-186.95396 -1080.2284 3271.4897 4285358454
-186.89406 -1080.2279 3271.5151 4285751145
-186.64722 -1080.1586 3271.6196 4282131254
-186.61238 -1080.1837 3271.6536 4286082181
-186.54663 -1080.1666 3271.6943 4288517041
-187.34741 -1080.1501 3271.2048 4285687426
-187.27705 -1080.1439 3271.2563 4288245337
-187.23553 -1080.1332 3271.282 4286997593
-187.15269 -1080.1915 3271.3662 4291800754
-186.64783 -1080.1311 3271.6179 4285355864
-186.61714 -1080.1315 3271.6636 4289236373
-186.35577 -1080.0688 3271.8345 4290160578
-187.35651 -1080.1084 3271.2009 4287199103
-187.31055 -1080.0549 3271.2368 4286210401
-187.21898 -1080.0482 3271.2693 4286538066
-186.38423 -1079.9496 3271.8523 4287530913
-187.32068 -1079.967 3271.2378 4285547561
-187.23677 -1079.9585 3271.2842 4285807903
-186.38179 -1079.8688 3271.8462 4287333283
-186.34877 -1079.8359 3271.8726 4287004306
-187.30038 -1079.9028 3271.2322 4285219881
-187.24236 -1079.8915 3271.2922 4285413672
-186.38991 -1079.8162 3271.8555 4287005074
-186.33318 -1079.8103 3271.8865 4286348168
-186.2556 -1079.78 3271.9695 4286472257
-187.37161 -1080.8585 3271.1768 4280623128
-187.32053 -1080.8466 3271.2114 4281017133
-187.25519 -1080.8262 3271.2566 4281542450
-187.38942 -1080.7717 3271.1853 4282858064
-187.33875 -1080.77 3271.2078 4282661714
-187.25987 -1080.7659 3271.2595 4282923346
-187.20557 -1080.7552 3271.2881 4283253321
-187.41463 -1080.6689 3271.1951 4283911521
-187.34586 -1080.6738 3271.2168 4283846502
-187.26677 -1080.6619 3271.2717 4284108904
-187.20502 -1080.6505 3271.3074 4284241001
-187.43526 -1080.5807 3271.2051 4284438131
-187.37743 -1080.5786 3271.2354 4284504178
-187.27957 -1080.5643 3271.2756 4284701303
-187.20107 -1080.5359 3271.3257 4285030267
-187.14903 -1080.5011 3271.3491 4285423228
-187.46971 -1080.486 3271.2288 4287333005
-187.39302 -1080.4829 3271.2495 4286477973
-187.29413 -1080.4646 3271.2844 4286871965
-187.20839 -1080.4502 3271.3325 4287135389
-187.13928 -1080.4578 3271.3767 4286147972
-187.04951 -1080.4508 3271.4304 4285883519
-187.47955 -1080.3866 3271.2322 4288319126
-187.40767 -1080.3795 3271.2568 4287859632
-187.31468 -1080.3687 3271.2983 4288188086
-187.21616 -1080.3528 3271.3398 4288714425
-187.1543 -1080.3429 3271.3801 4289305787
-187.07193 -1080.3417 3271.4292 4286807706
-187.49817 -1080.2877 3271.2417 4287726735
-187.43164 -1080.283 3271.2756 4287399338
-187.34084 -1080.2729 3271.3025 4287792811
-187.23439 -1080.2595 3271.3457 4290422713
-187.15065 -1080.251 3271.3967 4292591551
-187.10414 -1080.222 3271.4312 4290880152
-187.50302 -1080.2281 3271.2375 4287266977
-187.42123 -1080.1877 3271.2795 4287070114
-187.34877 -1080.1797 3271.3088 4287528080
-187.26001 -1080.1801 3271.3489 4288120991
-187.18871 -1080.1951 3271.3735 4292459441
-187.42857 -1080.0889 3271.2954 4285754503
-187.37938 -1080.0879 3271.3049 4286541693
-187.27631 -1080.0974 3271.3411 4284241257
-187.42415 -1080.0062 3271.2947 4284436055
-187.38223 -1079.9869 3271.2769 4284300353
-187.26445 -1079.9578 3271.3721 4282594113
-187.53214 -1080.2828 3271.2363 4288577890
12408.75 -184436.42 15186.59 4294901502
12408.822 -184436.42 15186.592 4294901502
12408.903 -184436.42 15186.597 4294901502
12408.991 -184436.42 15186.601 4294901502
12408.764 -184436.42 15186.56 4294901502
12408.826 -184436.42 15186.56 4294901502
12408.93 -184436.42 15186.571 4294901502
12409.023 -184436.41 15186.581 4294901502
12409.123 -184436.41 15186.586 4294901502
12409.217 -184436.41 15186.595 4294308079
12408.669 -184436.44 15186.707 4294901502
12408.73 -184436.42 15186.669 4294901502
12408.824 -184436.42 15186.664 4294901502
12408.922 -184436.42 15186.668 4294901502
12409.018 -184436.42 15186.68 4294901502
12409.106 -184436.42 15186.701 4294901502
12409.224 -184436.42 15186.717 4294901502
12408.955 -184436.42 15186.633 4294901502
12409.032 -184436.42 15186.643 4294901502
12409.126 -184436.42 15186.658 4294901502
12409.218 -184436.41 15186.664 4294638329
12409.274 -184436.34 15186.705 4280486404
12408.665 -184436.55 15186.765 4294637558
12408.685 -184436.56 15186.771 4294703094
12408.66 -184436.48 15186.76 4294372585
12408.728 -184436.44 15186.763 4294835195
12408.825 -184436.44 15186.765 4294901502
12408.926 -184436.42 15186.768 4294901502
12409.023 -184436.42 15186.763 4294901502
12409.124 -184436.42 15186.768 4294901502
12409.22 -184436.42 15186.775 4294901502
12409.298 -184436.42 15186.799 4294901502
12409.025 -184436.42 15186.722 4294901502
12409.149 -184436.42 15186.725 4294901502
12409.237 -184436.42 15186.734 4294572022
12409.306 -184436.41 15186.783 4288184959
12408.739 -184436.53 15186.881 4294306276
12408.747 -184436.47 15186.847 4294637556
12408.828 -184436.44 15186.862 4294901501
12408.924 -184436.44 15186.868 4294901502
12409.025 -184436.44 15186.866 4294901502
12409.124 -184436.42 15186.867 4294901502
12409.224 -184436.42 15186.866 4294901502
12409.324 -184436.42 15186.87 4294901502
12409.396 -184436.42 15186.898 4294901245
12409.354 -184436.39 15186.84 4285487187
12409.399 -184436.41 15186.884 4285486158
12409.33 -184436.3 15186.891 4280223747
12408.856 -184436.44 15186.938 4294901500
12408.922 -184436.44 15186.962 4294703089
12409.022 -184436.44 15186.951 4294703862
12409.124 -184436.44 15186.951 4294571764
12409.227 -184436.44 15186.963 4294901502
12409.324 -184436.44 15186.966 4294901502
12409.424 -184436.42 15186.97 4294835709
12409.494 -184436.42 15186.996 4294438890
12409.443 -184436.39 15186.949 4282459941
12409.494 -184436.41 15186.991 4283181866
12409.364 -184436.28 15186.93 4280223490
12409.41 -184436.28 15186.979 4280026627
12409.439 -184436.22 15187.018 4279895553
12409.251 -184436.44 15187.042 4294835709
12409.325 -184436.44 15187.066 4294901502
12409.426 -184436.44 15187.068 4294901502
12409.522 -184436.44 15187.064 4294703094
12409.589 -184436.42 15187.099 4293118917
12409.454 -184436.31 15187.021 4280025601
12409.537 -184436.38 15187.059 4281013267
12409.591 -184436.41 15187.104 4281276693
12409.459 -184436.27 15187.035 4279895044
12409.501 -184436.27 15187.082 4279632898
12409.463 -184436.2 15187.047 4280026114
12409.502 -184436.2 15187.091 4279632898
12409.349 -184436.44 15187.151 4294769653
12409.424 -184436.44 15187.17 4294703603
12409.522 -184436.44 15187.163 4294769138
12409.621 -184436.44 15187.167 4293779416
12409.679 -184436.42 15187.19 4281472515
12409.552 -184436.31 15187.135 4279501826
12409.615 -184436.38 15187.163 4280290825
12409.551 -184436.27 15187.139 4279632898
12409.601 -184436.27 15187.193 4279501826
12409.551 -184436.19 15187.147 4279567106
12409.597 -184436.17 15187.201 4279501570
12409.558 -184436.55 15187.311 4284040498
12409.579 -184436.55 15187.301 4282394901
12409.433 -184436.45 15187.246 4294172622
12409.537 -184436.47 15187.28 4290355339
12409.626 -184436.44 15187.264 4293775294
12409.685 -184436.44 15187.287 4292917665
12409.63 -184436.33 15187.223 4279502337
12409.626 -184436.27 15187.222 4279764484
12409.623 -184436.19 15187.224 4280093447
12409.468 -184436.55 15187.352 4284828985
12409.515 -184436.56 15187.335 4283250988
12409.594 -184436.56 15187.319 4281213202
12409.462 -184436.47 15187.351 4286274887
12409.509 -184436.48 15187.335 4282592285
12409.638 -184436.45 15187.363 4291667596
12409.692 -184436.45 15187.374 4292522651
12409.671 -184436.08 15187.382 4279962881
12409.69 -184436.08 15187.404 4280686087
12409.063 -184436.45 15187.475 4291604646
12409.117 -184436.44 15187.467 4289434254
12409.66 -184436.45 15187.453 4290352253
12409.698 -184436.45 15187.473 4290812032
12409.12 -184436.39 15187.476 4287918685
12409.408 -184436.41 15187.444 4287916835
12409.713 -184436.14 15187.453 4280685058
12409.438 -184436.42 15187.599 4291797610
12409.477 -184436.42 15187.574 4291138682
12409.716 -184436.47 15187.572 4288379995
12409.424 -184436.41 15187.57 4291799439
12409.48 -184436.41 15187.553 4292717456
12409.821 -184436.34 15187.55 4279502085
12409.836 -184436.31 15187.617 4279371532
