# .PCD v0.7 - Point Cloud Data file format
VERSION 0.7
FIELDS x y z rgba
SIZE 4 4 4 4
TYPE F F F U
COUNT 1 1 1 1
WIDTH 1230
HEIGHT 1
VIEWPOINT 0 0 0 1 0 0 0
POINTS 1230
DATA ascii
0.21780001 -0.36480001 1.2872 4294901760
0.21179999 -0.3642 1.2871 4294901760
0.2034 -0.35949999 1.2721 4294901760
0.19750001 -0.35890001 1.2716 4294901760
0.1899 -0.35510001 1.2596999 4294901760
0.185 -0.35609999 1.2653 4294901760
0.17749999 -0.35229999 1.2533 4294901760
0.17460001 -0.3574 1.2731 4294901760
0.1648 -0.34850001 1.2424001 4294901760
0.16320001 -0.35690001 1.2740999 4294901760
0.15809999 -0.35769999 1.2787 4294901760
0.14920001 -0.34990001 1.2519 4294901760
0.1455 -0.35409999 1.2684 4294901760
0.14229999 -0.3599 1.2904 4294901760
0.1353 -0.35620001 1.2782 4294901760
0.1285 -0.35260001 1.2665 4294901760
0.1222 -0.3502 1.2589 4294901760
0.119 -0.35699999 1.2846 4294901760
0.1088 -0.3423 1.2321 4294901760
0.1089 -0.3601 1.2977 4294901760
0.1029 -0.35890001 1.2944 4294901760
0.097599998 -0.35969999 1.2984 4294901760
0.090300001 -0.35299999 1.2747 4294901760
0.0836 -0.3477 1.256 4294901760
0.079899997 -0.3554 1.2849 4294901760
0.074699998 -0.35710001 1.2917 4294901760
0.068300001 -0.3524 1.2753 4294901760
0.062799998 -0.352 1.2744 4294901760
0.057799999 -0.35499999 1.2859 4294901760
0.052299999 -0.3554 1.2876 4294901760
0.047800001 -0.36300001 1.3161 4294901760
0.0414 -0.35600001 1.2907 4294901760
0.035100002 -0.34819999 1.2625999 4294901760
0.030400001 -0.35620001 1.2922 4294901760
0.024499999 -0.35120001 1.274 4294901760
0.019200001 -0.35420001 1.285 4294901760
0.0137 -0.3527 1.2798001 4294901760
0.0080000004 -0.34529999 1.2528 4294901760
0.0027999999 -0.3558 1.2914 4294901760
-0.0027999999 -0.35910001 1.3034 4294901760
-0.0081000002 -0.34990001 1.2696 4294901760
-0.0134 -0.34459999 1.2501 4294901760
-0.019300001 -0.3554 1.2897 4294901760
-0.0243 -0.3486 1.2643 4294901760
-0.030200001 -0.35409999 1.2842 4294901760
-0.036200002 -0.35949999 1.3038 4294901760
-0.0416 -0.35730001 1.2957 4294901760
-0.0471 -0.3572 1.2946 4294901760
-0.051899999 -0.35210001 1.2755001 4294901760
-0.0568 -0.34869999 1.2625999 4294901760
-0.062799998 -0.3524 1.2759 4294901760
-0.068800002 -0.35510001 1.285 4294901760
-0.075300001 -0.35969999 1.3011 4294901760
-0.080899999 -0.35980001 1.3008 4294901760
-0.084100001 -0.34990001 1.2640001 4294901760
-0.092100002 -0.36000001 1.3003 4294901760
-0.096500002 -0.3556 1.2834001 4294901760
-0.1004 -0.34999999 1.2621 4294901760
-0.1086 -0.35910001 1.2941999 4294901760
-0.114 -0.35870001 1.2919 4294901760
-0.1186 -0.35589999 1.2805001 4294901760
-0.1232 -0.35319999 1.2697001 4294901760
-0.12720001 -0.34909999 1.2539001 4294901760
-0.13609999 -0.3583 1.2861 4294901760
-0.14030001 -0.35479999 1.272 4294901760
-0.1453 -0.3536 1.2666 4294901760
-0.15019999 -0.35229999 1.2604001 4294901760
-0.15800001 -0.3576 1.2783999 4294901760
-0.16240001 -0.35519999 1.268 4294901760
-0.16769999 -0.3547 1.2649 4294901760
-0.17550001 -0.3594 1.2804 4294901760
-0.1786 -0.35440001 1.2606 4294901760
-0.1833 -0.3529 1.2536 4294901760
-0.1908 -0.3567 1.2656 4294901760
-0.1983 -0.36019999 1.2766 4294901760
-0.20370001 -0.36000001 1.2738 4294901760
-0.207 -0.35600001 1.2578 4294901760
-0.2111 -0.35370001 1.2474999 4294901760
-0.21870001 -0.35710001 1.2577 4294901760
-0.226 -0.3599 1.2656 4294901760
-0.23 -0.3574 1.2546999 4294901760
-0.23649999 -0.359 1.2582 4294901760
-0.2384 -0.3536 1.2368 4294901760
-0.25580001 -0.3707 1.295 4294901760
-0.25639999 -0.3635 1.2673 4294901760
-0.2579 -0.35769999 1.2444 4294901760
-0.26789999 -0.36379999 1.2632 4294901760
-0.27320001 -0.36340001 1.2593 4294901760
-0.278 -0.36219999 1.2527 4294901760
-0.28119999 -0.35910001 1.2393 4294901760
-0.2904 -0.3637 1.2524 4294901760
-0.29440001 -0.3617 1.2427 4294901760
-0.29980001 -0.36140001 1.2388999 4294901760
-0.31130001 -0.36840001 1.2601 4294901760
-0.31200001 -0.36250001 1.2368 4294901760
0.55019999 -0.41190001 1.2273999 4294901760
0.52759999 -0.39950001 1.1964999 4294901760
0.52850002 -0.40490001 1.2187001 4294901760
0.51480001 -0.39910001 1.207 4294901760
0.51999998 -0.40790001 1.2399 4294901760
0.52039999 -0.41319999 1.2622 4294901760
0.4928 -0.39610001 1.215 4294901760
0.4894 -0.39820001 1.227 4294901760
0.49739999 -0.40979999 1.2687 4294901760
0.47 -0.39219999 1.219 4294901760
0.47139999 -0.39840001 1.2437 4294901760
0.46709999 -0.40000001 1.2537 4294901760
0.45550001 -0.39520001 1.2435 4294901760
0.45179999 -0.3973 1.255 4294901760
0.4492 -0.4003 1.2695 4294901760
0.42179999 -0.3811 1.2126 4294901760
0.41549999 -0.38060001 1.2156 4294901760
0.42449999 -0.3944 1.2643 4294901760
0.4086 -0.38510001 1.2386 4294901760
0.42609999 -0.40740001 1.3156 4294901760
0.3978 -0.38600001 1.2501 4294901760
0.38839999 -0.38260001 1.2428 4294901760
0.3865 -0.3865 1.2598 4294901760
0.36610001 -0.37180001 1.215 4294901760
0.37810001 -0.38999999 1.2790999 4294901760
0.35640001 -0.37360001 1.2282 4294901760
0.34940001 -0.3721 1.227 4294901760
0.33629999 -0.36410001 1.2036999 4294901760
0.33770001 -0.37180001 1.2327 4294901760
0.33849999 -0.37900001 1.2602 4294901760
0.32879999 -0.37459999 1.2486 4294901760
0.31810001 -0.3687 1.2322 4294901760
0.55019999 -0.41190001 1.2273999 4294901760
0.52759999 -0.39950001 1.1964999 4294901760
0.52850002 -0.40490001 1.2187001 4294901760
0.51480001 -0.39910001 1.207 4294901760
0.51999998 -0.40790001 1.2399 4294901760
0.52039999 -0.41319999 1.2622 4294901760
0.4928 -0.39610001 1.215 4294901760
0.4894 -0.39820001 1.227 4294901760
0.49739999 -0.40979999 1.2687 4294901760
0.47 -0.39219999 1.219 4294901760
0.47139999 -0.39840001 1.2437 4294901760
0.46709999 -0.40000001 1.2537 4294901760
0.45550001 -0.39520001 1.2435 4294901760
0.45179999 -0.3973 1.255 4294901760
0.4492 -0.4003 1.2695 4294901760
0.42179999 -0.3811 1.2126 4294901760
0.41549999 -0.38060001 1.2156 4294901760
0.42449999 -0.3944 1.2643 4294901760
0.4086 -0.38510001 1.2386 4294901760
0.42609999 -0.40740001 1.3156 4294901760
0.3978 -0.38600001 1.2501 4294901760
0.38839999 -0.38260001 1.2428 4294901760
0.3865 -0.3865 1.2598 4294901760
0.36610001 -0.37180001 1.215 4294901760
0.37810001 -0.38999999 1.2790999 4294901760
0.35640001 -0.37360001 1.2282 4294901760
0.34940001 -0.3721 1.227 4294901760
0.33629999 -0.36410001 1.2036999 4294901760
0.33770001 -0.37180001 1.2327 4294901760
0.33849999 -0.37900001 1.2602 4294901760
0.32879999 -0.37459999 1.2486 4294901760
0.31810001 -0.3687 1.2322 4294901760
0.30680001 -0.36210001 1.2128 4294901760
0.303 -0.3642 1.2229 4294901760
0.30090001 -0.36840001 1.2401 4294901760
0.2899 -0.36160001 1.2199 4294901760
0.2854 -0.36289999 1.2271 4294901760
0.27970001 -0.36269999 1.2291 4294901760
0.2714 -0.35910001 1.2194 4294901760
0.2692 -0.3635 1.2371 4294901760
0.26269999 -0.36230001 1.2352 4294901760
0.25830001 -0.36379999 1.2429 4294901760
0.2494 -0.359 1.2289 4294901760
0.2394 -0.35229999 1.2079 4294901760
0.2457 -0.36989999 1.2711 4294901760
0.2313 -0.3565 1.227 4294901760
0.2236 -0.35280001 1.2163 4294901760
0.2289 -0.37020001 1.2789 4294901760
0.2184 -0.36210001 1.2525001 4294901760
0.21439999 -0.36469999 1.2637 4294901760
0.1997 -0.34869999 1.2097 4294901760
0.20299999 -0.36430001 1.266 4294901760
0.1947 -0.3592 1.2501 4294901760
0.189 -0.35879999 1.2502 4294901760
0.1797 -0.35139999 1.2258 4294901760
0.17839999 -0.35960001 1.2563 4294901760
0.1737 -0.3612 1.2638 4294901760
0.1666 -0.35769999 1.253 4294901760
0.16159999 -0.35890001 1.2584 4294901760
0.1551 -0.35640001 1.2513 4294901760
0.14830001 -0.35330001 1.2415 4294901760
0.14480001 -0.35789999 1.2591 4294901760
0.1358 -0.34889999 1.2285 4294901760
0.13410001 -0.3585 1.2637 4294901760
0.12899999 -0.35960001 1.2689 4294901760
0.1222 -0.3556 1.2558 4294901760
0.117 -0.35640001 1.2596 4294901760
0.1114 -0.35589999 1.2589 4294901760
0.1063 -0.3572 1.2644 4294901760
0.1013 -0.35859999 1.2704 4294901760
0.097999997 -0.36680001 1.3005 4294901760
0.090800002 -0.36039999 1.2783999 4294901760
0.085199997 -0.36019999 1.2785 4294901760
0.078400001 -0.35409999 1.2574 4294901760
0.073399998 -0.35600001 1.2648 4294901760
0.067299999 -0.3529 1.2543 4294901760
0.0638 -0.3633 1.2922 4294901760
0.057300001 -0.3574 1.2716 4294901760
0.0515 -0.35519999 1.2642 4294901760
0.046700001 -0.36019999 1.2824 4294901760
0.040399998 -0.3531 1.2573 4294901760
0.035999998 -0.36309999 1.2936 4294901760
0.030400001 -0.36219999 1.2905 4294901760
0.024700001 -0.35890001 1.2789 4294901760
0.019099999 -0.3572 1.2731 4294901760
0.0135 -0.35319999 1.2591 4294901760
0.0082 -0.3574 1.2740999 4294901760
0.0027000001 -0.35550001 1.2674 4294901760
-0.0027999999 -0.36750001 1.3103 4294901760
-0.0083999997 -0.36649999 1.3068 4294901760
-0.0138 -0.36160001 1.2891001 4294901760
-0.019099999 -0.3565 1.2708 4294901760
-0.0243 -0.35330001 1.2589 4294901760
-0.030200001 -0.3592 1.2799 4294901760
-0.035799999 -0.36059999 1.2848001 4294901760
-0.041099999 -0.35859999 1.2773 4294901760
-0.046999998 -0.36210001 1.2894 4294901760
-0.052200001 -0.36000001 1.2812999 4294901760
-0.056299999 -0.35139999 1.2502 4294901760
-0.062799998 -0.35789999 1.2728 4294901760
-0.068099998 -0.35690001 1.2687 4294901760
-0.071699999 -0.3477 1.2352 4294901760
-0.078599997 -0.35499999 1.2607 4294901760
-0.087300003 -0.36899999 1.3102 4294901760
-0.090800002 -0.3603 1.2781 4294901760
-0.095299996 -0.35679999 1.2647001 4294901760
-0.1009 -0.3572 1.2652 4294901760
-0.1052 -0.35330001 1.2503 4294901760
-0.111 -0.35460001 1.2542 4294901760
-0.1157 -0.35260001 1.2460999 4294901760
-0.1207 -0.35139999 1.2406 4294901760
-0.1295 -0.36090001 1.2733001 4294901760
-0.1357 -0.36269999 1.2786 4294901760
-0.1397 -0.35890001 1.2639 4294901760
-0.1461 -0.361 1.2702 4294901760
-0.15279999 -0.36390001 1.2792 4294901760
-0.1556 -0.35769999 1.2557 4294901760
-0.163 -0.36179999 1.2689 4294901760
-0.16940001 -0.36379999 1.2745 4294901760
-0.171 -0.3556 1.244 4294901760
-0.17479999 -0.3522 1.2304 4294901760
-0.1837 -0.3592 1.2534 4294901760
-0.18970001 -0.36019999 1.2551 4294901760
-0.197 -0.3635 1.2652 4294901760
-0.2016 -0.36179999 1.2573 4294901760
-0.20810001 -0.3635 1.2615 4294901760
-0.2137 -0.36359999 1.2599 4294901760
-0.22229999 -0.36860001 1.2751 4294901760
-0.22310001 -0.36090001 1.2462 4294901760
-0.226 -0.3567 1.2295001 4294901760
-0.23019999 -0.35479999 1.2209001 4294901760
-0.2384 -0.35890001 1.233 4294901760
-0.2481 -0.36520001 1.2526 4294901760
-0.2536 -0.36500001 1.2496001 4294901760
-0.25549999 -0.3599 1.2296 4294901760
-0.27149999 -0.37439999 1.2769001 4294901760
-0.273 -0.36860001 1.2546 4294901760
-0.27849999 -0.36849999 1.2515 4294901760
-0.28549999 -0.37040001 1.2552 4294901760
-0.2888 -0.3673 1.242 4294901760
-0.2879 -0.35910001 1.2114 4294901760
-0.29339999 -0.3592 1.2086999 4294901760
-0.30880001 -0.37110001 1.2462 4294901760
-0.30509999 -0.3601 1.2059 4294901760
0.56720001 -0.43110001 1.2606 4294901760
0.52679998 -0.405 1.1898 4294901760
0.53390002 -0.4152 1.2265 4294901760
0.51010001 -0.4014 1.1912 4294901760
0.50599998 -0.403 1.2018 4294901760
0.50300002 -0.40549999 1.215 4294901760
0.49290001 -0.4021 1.2106 4294901760
0.48289999 -0.3989 1.2063 4294901760
0.48750001 -0.40779999 1.2387 4294901760
0.47999999 -0.4066 1.2406 4294901760
0.46779999 -0.4014 1.2298 4294901760
0.46110001 -0.40079999 1.2329 4294901760
0.45820001 -0.40360001 1.2466 4294901760
0.44670001 -0.39879999 1.2364 4294901760
0.4461 -0.40360001 1.2564 4294901760
0.4242 -0.38909999 1.2153 4294901760
0.43180001 -0.4016 1.2596 4294901760
0.4084 -0.38530001 1.2121 4294901760
0.3998 -0.38260001 1.2078 4294901760
0.39579999 -0.38420001 1.2173001 4294901760
0.40000001 -0.39410001 1.2529 4294901760
0.38980001 -0.38980001 1.2434 4294901760
0.38319999 -0.389 1.2447 4294901760
0.3714 -0.3829 1.2289 4294901760
0.361 -0.37810001 1.2169 4294901760
0.3563 -0.37909999 1.2239 4294901760
0.3527 -0.38139999 1.2348 4294901760
0.34509999 -0.3793 1.2316999 4294901760
0.32980001 -0.36860001 1.1999 4294901760
0.32699999 -0.37169999 1.2135 4294901760
0.31940001 -0.36939999 1.209 4294901760
0.31619999 -0.37220001 1.2214 4294901760
0.56720001 -0.43110001 1.2606 4294901760
0.52679998 -0.405 1.1898 4294901760
0.53390002 -0.4152 1.2265 4294901760
0.51010001 -0.4014 1.1912 4294901760
0.50599998 -0.403 1.2018 4294901760
0.50300002 -0.40549999 1.215 4294901760
0.49290001 -0.4021 1.2106 4294901760
0.48289999 -0.3989 1.2063 4294901760
0.48750001 -0.40779999 1.2387 4294901760
0.47999999 -0.4066 1.2406 4294901760
0.46779999 -0.4014 1.2298 4294901760
0.46110001 -0.40079999 1.2329 4294901760
0.45820001 -0.40360001 1.2466 4294901760
0.44670001 -0.39879999 1.2364 4294901760
0.4461 -0.40360001 1.2564 4294901760
0.4242 -0.38909999 1.2153 4294901760
0.43180001 -0.4016 1.2596 4294901760
0.4084 -0.38530001 1.2121 4294901760
0.3998 -0.38260001 1.2078 4294901760
0.39579999 -0.38420001 1.2173001 4294901760
0.40000001 -0.39410001 1.2529 4294901760
0.38980001 -0.38980001 1.2434 4294901760
0.38319999 -0.389 1.2447 4294901760
0.3714 -0.3829 1.2289 4294901760
0.361 -0.37810001 1.2169 4294901760
0.3563 -0.37909999 1.2239 4294901760
0.3527 -0.38139999 1.2348 4294901760
0.34509999 -0.3793 1.2316999 4294901760
0.32980001 -0.36860001 1.1999 4294901760
0.32699999 -0.37169999 1.2135 4294901760
0.31940001 -0.36939999 1.209 4294901760
0.31619999 -0.37220001 1.2214 4294901760
0.31259999 -0.37459999 1.2323999 4294901760
0.30419999 -0.3712 1.2241 4294901760
0.29840001 -0.37090001 1.226 4294901760
0.28420001 -0.36000001 1.1924 4294901760
0.28299999 -0.36539999 1.2133 4294901760
0.2823 -0.37169999 1.2373 4294901760
0.27320001 -0.36700001 1.2241 4294901760
0.2595 -0.3558 1.1888 4294901760
0.2579 -0.36109999 1.209 4294901760
0.2536 -0.36269999 1.2169 4294901760
0.2491 -0.36410001 1.2242 4294901760
0.24680001 -0.36880001 1.2424001 4294901760
0.23890001 -0.3653 1.2327 4294901760
0.2331 -0.36469999 1.233 4294901760
0.22759999 -0.36480001 1.2352999 4294901760
0.2203 -0.36179999 1.2271 4294901760
0.212 -0.35690001 1.2122999 4294901760
0.2066 -0.35690001 1.2145 4294901760
0.2015 -0.35730001 1.2178 4294901760
0.19589999 -0.35679999 1.2179 4294901760
0.19 -0.35589999 1.2165 4294901760
0.1892 -0.3646 1.2482001 4294901760
0.18260001 -0.36250001 1.2427 4294901760
0.1758 -0.35969999 1.2345001 4294901760
0.17219999 -0.36359999 1.2496001 4294901760
0.1646 -0.35890001 1.2347 4294901760
0.1576 -0.35519999 1.2235 4294901760
0.15530001 -0.36230001 1.2496001 4294901760
0.15000001 -0.36269999 1.2524 4294901760
0.1419 -0.35620001 1.2309 4294901760
0.13500001 -0.352 1.2176 4294901760
0.13160001 -0.3572 1.2369 4294901760
0.1284 -0.36340001 1.2596999 4294901760
0.1207 -0.35679999 1.2377 4294901760
0.117 -0.36179999 1.2561001 4294901760
0.1128 -0.366 1.2722 4294901760
0.1038 -0.35409999 1.2311 4294901760
0.099799998 -0.35859999 1.248 4294901760
0.093000002 -0.35330001 1.23 4294901760
0.090400003 -0.3644 1.27 4294901760
0.083899997 -0.35980001 1.2545 4294901760
0.078400001 -0.35980001 1.2552 4294901760
0.0735 -0.36219999 1.2643 4294901760
0.068800002 -0.36629999 1.2793 4294901760
0.0625 -0.3617 1.2638 4294901760
0.056499999 -0.35789999 1.2509 4294901760
0.0517 -0.3617 1.2649 4294901760
0.046100002 -0.3608 1.2622 4294901760
0.040399998 -0.35859999 1.2548 4294901760
0.035599999 -0.3644 1.2755001 4294901760
0.0296 -0.3583 1.2542 4294901760
0.0241 -0.35620001 1.247 4294901760
0.018999999 -0.36070001 1.2632 4294901760
0.0137 -0.3633 1.2724 4294901760
0.0081000002 -0.36090001 1.2640001 4294901760
0.0027000001 -0.3599 1.2605 4294901760
-0.0027000001 -0.36199999 1.2681 4294901760
-0.0081000002 -0.36129999 1.2654001 4294901760
-0.0139 -0.36939999 1.2941999 4294901760
-0.0189 -0.35820001 1.2544 4294901760
-0.024700001 -0.36430001 1.2758 4294901760
-0.030300001 -0.36629999 1.2824 4294901760
-0.035 -0.3581 1.2532001 4294901760
-0.039999999 -0.35460001 1.2404 4294901760
-0.0469 -0.36660001 1.2825 4294901760
-0.050099999 -0.35049999 1.2253 4294901760
-0.056600001 -0.3585 1.2532001 4294901760
-0.063000001 -0.36399999 1.272 4294901760
-0.0678 -0.36090001 1.2603 4294901760
-0.072899997 -0.35890001 1.2529 4294901760
-0.078900002 -0.3617 1.2618999 4294901760
-0.0832 -0.35690001 1.2443 4294901760
-0.090400003 -0.36449999 1.2702 4294901760
-0.094599999 -0.35949999 1.252 4294901760
-0.1 -0.35949999 1.2512 4294901760
-0.1022 -0.3484 1.2112 4294901760
-0.1104 -0.3581 1.2444 4294901760
-0.1143 -0.35339999 1.2269 4294901760
-0.1198 -0.35409999 1.2280999 4294901760
-0.1277 -0.36129999 1.2524 4294901760
-0.13160001 -0.3572 1.2369 4294901760
-0.1366 -0.3563 1.2323999 4294901760
-0.1444 -0.36250001 1.2528 4294901760
-0.14830001 -0.35870001 1.2384 4294901760
-0.15350001 -0.3581 1.235 4294901760
-0.16140001 -0.36379999 1.2532001 4294901760
-0.1656 -0.361 1.242 4294901760
-0.1706 -0.36019999 1.238 4294901760
-0.17550001 -0.3592 1.2328 4294901760
-0.18260001 -0.36250001 1.2427 4294901760
-0.1869 -0.36019999 1.2331001 4294901760
-0.19329999 -0.36210001 1.2377 4294901760
-0.2009 -0.36590001 1.2492 4294901760
-0.20379999 -0.36149999 1.232 4294901760
-0.2112 -0.36489999 1.2417001 4294901760
-0.21510001 -0.36210001 1.2302001 4294901760
-0.2168 -0.35600001 1.2072001 4294901760
-0.2298 -0.3682 1.2471 4294901760
-0.23639999 -0.36989999 1.2506 4294901760
-0.23800001 -0.36379999 1.2278 4294901760
-0.23729999 -0.3547 1.1944 4294901760
-0.2483 -0.36289999 1.2201999 4294901760
-0.25319999 -0.36219999 1.2151999 4294901760
-0.26089999 -0.3653 1.2234 4294901760
-0.26800001 -0.36750001 1.2283 4294901760
-0.27160001 -0.36480001 1.2167 4294901760
-0.278 -0.36610001 1.2184 4294901760
-0.28549999 -0.36860001 1.2241 4294901760
-0.28580001 -0.36199999 1.1992 4294901760
-0.29359999 -0.36489999 1.206 4294901760
-0.30039999 -0.36649999 1.2085 4294901760
-0.29890001 -0.3581 1.1776 4294901760
0.53280002 -0.41100001 1.1787 4294901760
0.546 -0.42609999 1.2287 4294901760
0.51709998 -0.4082 1.1828001 4294901760
0.50410002 -0.40270001 1.1725 4294901760
0.5061 -0.4091 1.1973 4294901760
0.5018 -0.41049999 1.2072001 4294901760
0.4806 -0.398 1.1756001 4294901760
0.49399999 -0.41420001 1.2295001 4294901760
0.48100001 -0.4084 1.2176 4294901760
0.4664 -0.40110001 1.2007 4294901760
0.45899999 -0.3998 1.202 4294901760
0.46259999 -0.4082 1.2326 4294901760
0.4429 -0.396 1.2003 4294901760
0.45770001 -0.4147 1.2625999 4294901760
0.4235 -0.38890001 1.1878999 4294901760
0.42089999 -0.3919 1.2017 4294901760
0.4154 -0.39219999 1.2072001 4294901760
0.42320001 -0.40509999 1.252 4294901760
0.39379999 -0.38249999 1.1856 4294901760
0.3962 -0.39039999 1.2145 4294901760
0.39430001 -0.39430001 1.2309 4294901760
0.3856 -0.39140001 1.2259001 4294901760
0.38069999 -0.3924 1.2328 4294901760
0.36359999 -0.38049999 1.1991 4294901760
0.3626 -0.38550001 1.2184 4294901760
0.34709999 -0.3748 1.1881 4294901760
0.3382 -0.3712 1.1799001 4294901760
0.3344 -0.373 1.1892999 4294901760
0.32929999 -0.37349999 1.1942 4294901760
0.32010001 -0.36939999 1.1841 4294901760
0.31990001 -0.37560001 1.2072999 4294901760
0.31110001 -0.3716 1.1976 4294901760
0.53280002 -0.41100001 1.1787 4294901760
0.546 -0.42609999 1.2287 4294901760
0.51709998 -0.4082 1.1828001 4294901760
0.50410002 -0.40270001 1.1725 4294901760
0.5061 -0.4091 1.1973 4294901760
0.5018 -0.41049999 1.2072001 4294901760
0.4806 -0.398 1.1756001 4294901760
0.49399999 -0.41420001 1.2295001 4294901760
0.48100001 -0.4084 1.2176 4294901760
0.4664 -0.40110001 1.2007 4294901760
0.45899999 -0.3998 1.202 4294901760
0.46259999 -0.4082 1.2326 4294901760
0.4429 -0.396 1.2003 4294901760
0.45770001 -0.4147 1.2625999 4294901760
0.4235 -0.38890001 1.1878999 4294901760
0.42089999 -0.3919 1.2017 4294901760
0.4154 -0.39219999 1.2072001 4294901760
0.42320001 -0.40509999 1.252 4294901760
0.39379999 -0.38249999 1.1856 4294901760
0.3962 -0.39039999 1.2145 4294901760
0.39430001 -0.39430001 1.2309 4294901760
0.3856 -0.39140001 1.2259001 4294901760
0.38069999 -0.3924 1.2328 4294901760
0.36359999 -0.38049999 1.1991 4294901760
0.3626 -0.38550001 1.2184 4294901760
0.34709999 -0.3748 1.1881 4294901760
0.3382 -0.3712 1.1799001 4294901760
0.3344 -0.373 1.1892999 4294901760
0.32929999 -0.37349999 1.1942 4294901760
0.32010001 -0.36939999 1.1841 4294901760
0.31990001 -0.37560001 1.2072999 4294901760
0.31110001 -0.3716 1.1976 4294901760
0.29890001 -0.36359999 1.1743 4294901760
0.2881 -0.35679999 1.1551 4294901760
0.2911 -0.36719999 1.1921999 4294901760
0.2818 -0.36230001 1.1786 4294901760
0.28290001 -0.37079999 1.2094001 4294901760
0.27079999 -0.3619 1.1828001 4294901760
0.26890001 -0.36669999 1.2011 4294901760
0.2633 -0.3664 1.2027 4294901760
0.2579 -0.36649999 1.2055 4294901760
0.2525 -0.36660001 1.2082 4294901760
0.24779999 -0.36770001 1.2143 4294901760
0.2455 -0.37239999 1.2325 4294901760
0.2341 -0.3633 1.2041 4294901760
0.2274 -0.3612 1.1995 4294901760
0.2227 -0.36219999 1.2049 4294901760
0.221 -0.36829999 1.2273999 4294901760
0.2203 -0.37650001 1.257 4294901760
0.20730001 -0.3635 1.2153 4294901760
0.2031 -0.36570001 1.2244 4294901760
0.19499999 -0.36070001 1.2095 4294901760
0.1919 -0.36489999 1.2255 4294901760
0.183 -0.35800001 1.2038 4294901760
0.17990001 -0.3626 1.2209001 4294901760
0.17560001 -0.3646 1.2296 4294901760
0.1682 -0.3603 1.2165 4294901760
0.1618 -0.35820001 1.2106 4294901760
0.1587 -0.36309999 1.2291 4294901760
0.1559 -0.36919999 1.2510999 4294901760
0.1468 -0.3603 1.2221 4294901760
0.1437 -0.36610001 1.2431999 4294901760
0.13609999 -0.36039999 1.2249 4294901760
0.1309 -0.36059999 1.227 4294901760
0.1284 -0.36880001 1.2562 4294901760
0.1209 -0.36269999 1.2363 4294901760
0.115 -0.361 1.2316999 4294901760
0.1088 -0.3583 1.2234 4294901760
0.1043 -0.36109999 1.2338001 4294901760
0.099600002 -0.3633 1.2422 4294901760
0.093199998 -0.35949999 1.2301 4294901760
0.086900003 -0.3554 1.2168 4294901760
0.083400004 -0.36309999 1.2441 4294901760
0.078699999 -0.3662 1.2556 4294901760
0.072499998 -0.36250001 1.2433 4294901760
0.067000002 -0.36210001 1.2424999 4294901760
0.060800001 -0.35659999 1.224 4294901760
0.056600001 -0.36399999 1.2501 4294901760
0.050799999 -0.36109999 1.2407 4294901760
0.046 -0.36489999 1.2544 4294901760
0.040100001 -0.36090001 1.2408 4294901760
0.034400001 -0.35749999 1.2292 4294901760
0.0295 -0.3617 1.2443 4294901760
0.0241 -0.36129999 1.243 4294901760
0.0185 -0.35690001 1.2279 4294901760
0.0133 -0.35960001 1.2373 4294901760
0.0080000004 -0.36210001 1.2462 4294901760
0.0027000001 -0.3599 1.2386 4294901760
-0.0026 -0.35640001 1.2265 4294901760
-0.0081000002 -0.36320001 1.25 4294901760
-0.0134 -0.36140001 1.2438 4294901760
-0.0186 -0.35960001 1.2372 4294901760
-0.0239 -0.35879999 1.2345001 4294901760
-0.028999999 -0.3558 1.2235 4294901760
-0.034699999 -0.36000001 1.238 4294901760
-0.040399998 -0.36379999 1.2508 4294901760
-0.046100002 -0.36610001 1.2585 4294901760
-0.051199999 -0.3635 1.2492 4294901760
-0.056899998 -0.36559999 1.256 4294901760
-0.062100001 -0.3644 1.251 4294901760
-0.0656 -0.35409999 1.215 4294901760
-0.071900003 -0.3594 1.2325 4294901760
-0.078000002 -0.36300001 1.2445 4294901760
-0.082000002 -0.3572 1.2236 4294901760
-0.087700002 -0.359 1.2291 4294901760
-0.0933 -0.3599 1.2316 4294901760
-0.098399997 -0.3592 1.2282 4294901760
-0.1055 -0.36520001 1.2479 4294901760
-0.1076 -0.35440001 1.2097 4294901760
-0.114 -0.35800001 1.2211 4294901760
-0.1197 -0.35910001 1.2241 4294901760
-0.12639999 -0.36309999 1.2366 4294901760
-0.1294 -0.35659999 1.2130001 4294901760
-0.1381 -0.3655 1.2424001 4294901760
-0.1429 -0.36390001 1.2359 4294901760
-0.14480001 -0.35550001 1.2055 4294901760
-0.1524 -0.36090001 1.2229 4294901760
-0.1575 -0.36039999 1.2198 4294901760
-0.16060001 -0.35530001 1.201 4294901760
-0.1723 -0.36919999 1.2467 4294901760
-0.1758 -0.3651 1.2309999 4294901760
-0.18009999 -0.3628 1.2218 4294901760
-0.1833 -0.35859999 1.2058001 4294901760
-0.1918 -0.36469999 1.2249 4294901760
-0.19939999 -0.3687 1.2367001 4294901760
-0.20299999 -0.3653 1.2233 4294901760
-0.20909999 -0.36649999 1.2254 4294901760
-0.21359999 -0.36500001 1.2183 4294901760
-0.21690001 -0.36140001 1.2043 4294901760
-0.22310001 -0.36289999 1.2072001 4294901760
-0.2316 -0.36790001 1.2217 4294901760
-0.2334 -0.36210001 1.2004 4294901760
-0.24169999 -0.36669999 1.2133 4294901760
-0.2494 -0.36989999 1.2218 4294901760
-0.25260001 -0.36660001 1.2085 4294901760
-0.2642 -0.37540001 1.2352999 4294901760
-0.26820001 -0.3732 1.2253 4294901760
-0.27630001 -0.3768 1.2345001 4294901760
-0.27649999 -0.36950001 1.2079999 4294901760
-0.28310001 -0.37099999 1.2102 4294901760
-0.28780001 -0.37009999 1.2042 4294901760
-0.30070001 -0.37940001 1.232 4294901760
-0.29969999 -0.3712 1.2023 4294901760
-0.30599999 -0.37220001 1.2024 4294901760
0.52969998 -0.4147 1.1669 4294901760
0.52329999 -0.41440001 1.1724 4294901760
0.53659999 -0.42989999 1.223 4294901760
0.50620002 -0.4104 1.1727999 4294901760
0.50300002 -0.41260001 1.1852 4294901760
0.5036 -0.4181 1.207 4294901760
0.49250001 -0.414 1.2005 4294901760
0.47009999 -0.40000001 1.165 4294901760
0.48969999 -0.42199999 1.2351 4294901760
0.4831 -0.42160001 1.2395 4294901760
0.46720001 -0.4129 1.2191 4294901760
0.46489999 -0.4163 1.2342 4294901760
0.45249999 -0.41049999 1.222 4294901760
0.43939999 -0.4041 1.2074 4294901760
0.4278 -0.3987 1.196 4294901760
0.4197 -0.39649999 1.1939 4294901760
0.4172 -0.39969999 1.2082 4294901760
0.405 -0.3935 1.1935 4294901760
0.40400001 -0.39820001 1.2122 4294901760
0.39250001 -0.39250001 1.1989 4294901760
0.3978 -0.40369999 1.2378 4294901760
0.37959999 -0.391 1.2025 4294901760
0.37470001 -0.3919 1.2091 4294901760
0.36930001 -0.39219999 1.214 4294901760
0.36590001 -0.39469999 1.2255 4294901760
0.35280001 -0.3867 1.204 4294901760
0.33899999 -0.37760001 1.179 4294901760
0.336 -0.38049999 1.1914999 4294901760
0.32800001 -0.3777 1.186 4294901760
0.31670001 -0.37079999 1.1674 4294901760
0.3161 -0.37650001 1.1889 4294901760
0.3114 -0.3775 1.1950999 4294901760
0.52969998 -0.4147 1.1669 4294901760
0.52329999 -0.41440001 1.1724 4294901760
0.53659999 -0.42989999 1.223 4294901760
0.50620002 -0.4104 1.1727999 4294901760
0.50300002 -0.41260001 1.1852 4294901760
0.5036 -0.4181 1.207 4294901760
0.49250001 -0.414 1.2005 4294901760
0.47009999 -0.40000001 1.165 4294901760
0.48969999 -0.42199999 1.2351 4294901760
0.4831 -0.42160001 1.2395 4294901760
0.46720001 -0.4129 1.2191 4294901760
0.46489999 -0.4163 1.2342 4294901760
0.45249999 -0.41049999 1.222 4294901760
0.43939999 -0.4041 1.2074 4294901760
0.4278 -0.3987 1.196 4294901760
0.4197 -0.39649999 1.1939 4294901760
0.4172 -0.39969999 1.2082 4294901760
0.405 -0.3935 1.1935 4294901760
0.40400001 -0.39820001 1.2122 4294901760
0.39250001 -0.39250001 1.1989 4294901760
0.3978 -0.40369999 1.2378 4294901760
0.37959999 -0.391 1.2025 4294901760
0.37470001 -0.3919 1.2091 4294901760
0.36930001 -0.39219999 1.214 4294901760
0.36590001 -0.39469999 1.2255 4294901760
0.35280001 -0.3867 1.204 4294901760
0.33899999 -0.37760001 1.179 4294901760
0.336 -0.38049999 1.1914999 4294901760
0.32800001 -0.3777 1.186 4294901760
0.31670001 -0.37079999 1.1674 4294901760
0.3161 -0.37650001 1.1889 4294901760
0.3114 -0.3775 1.1950999 4294901760
0.30939999 -0.38190001 1.2122999 4294901760
0.294 -0.3696 1.1756001 4294901760
0.28690001 -0.3673 1.1712 4294901760
0.2766 -0.36090001 1.1533999 4294901760
0.2782 -0.37 1.1855 4294901760
0.27059999 -0.36700001 1.1784 4294901760
0.26629999 -0.36849999 1.1858 4294901760
0.25979999 -0.3669 1.1831 4294901760
0.25760001 -0.3714 1.2005 4294901760
0.2529 -0.37259999 1.2066 4294901760
0.24600001 -0.37040001 1.2019 4294901760
0.2375 -0.36559999 1.1885 4294901760
0.2291 -0.36070001 1.1747 4294901760
0.2305 -0.3714 1.2121 4294901760
0.22059999 -0.36410001 1.1899 4294901760
0.2181 -0.3689 1.2079999 4294901760
0.211 -0.36590001 1.1998 4294901760
0.2075 -0.36919999 1.2130001 4294901760
0.20119999 -0.36759999 1.2093 4294901760
0.1981 -0.37169999 1.225 4294901760
0.18960001 -0.36590001 1.2075 4294901760
0.18260001 -0.3626 1.198 4294901760
0.1778 -0.36359999 1.2032 4294901760
0.17380001 -0.36629999 1.2139 4294901760
0.1661 -0.3612 1.1982 4294901760
0.1645 -0.36939999 1.2271 4294901760
0.1565 -0.3635 1.2088 4294901760
0.15000001 -0.36059999 1.2005 4294901760
0.145 -0.3612 1.2038 4294901760
0.1434 -0.37059999 1.2368 4294901760
0.1346 -0.36149999 1.2075 4294901760
0.1274 -0.3563 1.1912 4294901760
0.1243 -0.36219999 1.2122 4294901760
0.1195 -0.3637 1.2183 4294901760
0.1119 -0.35640001 1.1947 4294901760
0.1075 -0.3594 1.2057 4294901760
0.1035 -0.3635 1.2205 4294901760
0.1 -0.37040001 1.2449 4294901760
0.093999997 -0.3678 1.2369 4294901760
0.089100003 -0.37 1.2452 4294901760
0.082199998 -0.36309999 1.2225 4294901760
0.075900003 -0.35839999 1.2074 4294901760
0.072099999 -0.366 1.2337 4294901760
0.065700002 -0.3599 1.2136 4294901760
0.061700001 -0.36770001 1.2408 4294901760
0.056400001 -0.36759999 1.2411 4294901760
0.050299998 -0.3626 1.2244 4294901760
0.045499999 -0.36700001 1.2398 4294901760
0.0396 -0.36129999 1.2207 4294901760
0.034600001 -0.36469999 1.2326 4294901760
0.0294 -0.366 1.2374001 4294901760
0.0241 -0.36649999 1.2393 4294901760
0.0186 -0.36480001 1.2338001 4294901760
0.0131 -0.35929999 1.2151 4294901760
0.0080000004 -0.36449999 1.2328 4294901760
0.0026 -0.35769999 1.2096 4294901760
-0.0027000001 -0.36520001 1.2354 4294901760
-0.0081000002 -0.37220001 1.2591 4294901760
-0.0132 -0.36219999 1.2251 4294901760
-0.0184 -0.361 1.2206 4294901760
-0.023600001 -0.35890001 1.2135 4294901760
-0.0295 -0.36739999 1.2421 4294901760
-0.034299999 -0.36140001 1.2214 4294901760
-0.0403 -0.36790001 1.2431999 4294901760
-0.045000002 -0.36300001 1.226 4294901760
-0.050500002 -0.36399999 1.229 4294901760
-0.0561 -0.36590001 1.2352 4294901760
-0.060899999 -0.36269999 1.2237999 4294901760
-0.067100003 -0.36750001 1.2393 4294901760
-0.072899997 -0.36989999 1.2472 4294901760
-0.075900003 -0.35839999 1.2074 4294901760
-0.081699997 -0.3608 1.2149 4294901760
-0.087899998 -0.36469999 1.2273999 4294901760
-0.094099998 -0.36829999 1.2386 4294901760
-0.098200001 -0.36379999 1.2224 4294901760
-0.1034 -0.36340001 1.2201999 4294901760
-0.1099 -0.3671 1.2319 4294901760
-0.1162 -0.37009999 1.2410001 4294901760
-0.1176 -0.35800001 1.1991 4294901760
-0.1283 -0.37400001 1.2521 4294901760
-0.12909999 -0.36090001 1.2066 4294901760
-0.1354 -0.36379999 1.215 4294901760
-0.1424 -0.3682 1.2286 4294901760
-0.1471 -0.3664 1.2213 4294901760
-0.15279999 -0.36719999 1.2229 4294901760
-0.1538 -0.35710001 1.1873 4294901760
-0.16159999 -0.36289999 1.2054 4294901760
-0.16429999 -0.35730001 1.1852 4294901760
-0.17479999 -0.36829999 1.2206 4294901760
-0.17739999 -0.36269999 1.2 4294901760
-0.18279999 -0.36300001 1.1993999 4294901760
-0.18719999 -0.3612 1.1919 4294901760
-0.19 -0.35659999 1.1748 4294901760
-0.1988 -0.36320001 1.1949 4294901760
-0.2084 -0.37079999 1.2181 4294901760
-0.2122 -0.368 1.207 4294901760
-0.2156 -0.36469999 1.1941 4294901760
-0.2252 -0.37169999 1.2149 4294901760
-0.2273 -0.3664 1.1954 4294901760
-0.23379999 -0.3682 1.1991 4294901760
-0.24169999 -0.3721 1.2097 4294901760
-0.2448 -0.36849999 1.1956 4294901760
-0.25389999 -0.37400001 1.2112 4294901760
-0.25920001 -0.37380001 1.2082 4294901760
-0.26409999 -0.373 1.2031 4294901760
-0.26699999 -0.36950001 1.1892 4294901760
-0.2791 -0.37850001 1.2157 4294901760
-0.28330001 -0.3768 1.2074 4294901760
-0.28560001 -0.37259999 1.1912 4294901760
-0.29179999 -0.37369999 1.1916 4294901760
-0.3026 -0.38029999 1.2102 4294901760
-0.29480001 -0.36379999 1.1542 4294901760
0.54869998 -0.43579999 1.204 4294901760
0.5219 -0.41929999 1.1641999 4294901760
0.5054 -0.41080001 1.1464 4294901760
0.50910002 -0.41870001 1.1746 4294901760
0.4883 -0.4064 1.1456 4294901760
0.4869 -0.4102 1.1619 4294901760
0.48030001 -0.40959999 1.1658 4294901760
0.48280001 -0.41679999 1.1921 4294901760
0.46059999 -0.40270001 1.1565 4294901760
0.46129999 -0.4084 1.1783 4294901760
0.44620001 -0.40020001 1.1595 4294901760
0.4404 -0.40009999 1.1641001 4294901760
0.4316 -0.3973 1.1608 4294901760
0.41980001 -0.39160001 1.1486 4294901760
0.4147 -0.39210001 1.1547 4294901760
0.42809999 -0.4104 1.2138 4294901760
0.40799999 -0.39660001 1.1769 4294901760
0.40400001 -0.39829999 1.1865 4294901760
0.39559999 -0.39559999 1.1827 4294901760
0.39129999 -0.39700001 1.1911 4294901760
0.38229999 -0.3937 1.1849999 4294901760
0.3883 -0.40580001 1.2261 4294901760
0.37029999 -0.39289999 1.1907001 4294901760
0.3732 -0.40220001 1.2229 4294901760
0.35960001 -0.3935 1.2000999 4294901760
0.34220001 -0.38060001 1.1638 4294901760
0.3434 -0.3881 1.1906 4294901760
0.33289999 -0.38240001 1.1765 4294901760
0.3299 -0.3854 1.189 4294901760
0.31420001 -0.37329999 1.1544 4294901760
0.31349999 -0.37889999 1.1753 4294901760
0.29980001 -0.3687 1.1465 4294901760
0.54869998 -0.43579999 1.204 4294901760
0.5219 -0.41929999 1.1641999 4294901760
0.5054 -0.41080001 1.1464 4294901760
0.50910002 -0.41870001 1.1746 4294901760
0.4883 -0.4064 1.1456 4294901760
0.4869 -0.4102 1.1619 4294901760
0.48030001 -0.40959999 1.1658 4294901760
0.48280001 -0.41679999 1.1921 4294901760
0.46059999 -0.40270001 1.1565 4294901760
0.46129999 -0.4084 1.1783 4294901760
0.44620001 -0.40020001 1.1595 4294901760
0.4404 -0.40009999 1.1641001 4294901760
0.4316 -0.3973 1.1608 4294901760
0.41980001 -0.39160001 1.1486 4294901760
0.4147 -0.39210001 1.1547 4294901760
0.42809999 -0.4104 1.2138 4294901760
0.40799999 -0.39660001 1.1769 4294901760
0.40400001 -0.39829999 1.1865 4294901760
0.39559999 -0.39559999 1.1827 4294901760
0.39129999 -0.39700001 1.1911 4294901760
0.38229999 -0.3937 1.1849999 4294901760
0.3883 -0.40580001 1.2261 4294901760
0.37029999 -0.39289999 1.1907001 4294901760
0.3732 -0.40220001 1.2229 4294901760
0.35960001 -0.3935 1.2000999 4294901760
0.34220001 -0.38060001 1.1638 4294901760
0.3434 -0.3881 1.1906 4294901760
0.33289999 -0.38240001 1.1765 4294901760
0.3299 -0.3854 1.189 4294901760
0.31420001 -0.37329999 1.1544 4294901760
0.31349999 -0.37889999 1.1753 4294901760
0.29980001 -0.3687 1.1465 4294901760
0.30410001 -0.38080001 1.1873 4294901760
0.29030001 -0.37020001 1.1569999 4294901760
0.2802 -0.36410001 1.1403 4294901760
0.2825 -0.3739 1.1744 4294901760
0.28200001 -0.38060001 1.1984 4294901760
0.2692 -0.3705 1.1688 4294901760
0.26800001 -0.37630001 1.1901 4294901760
0.25780001 -0.36950001 1.1707 4294901760
0.2543 -0.37200001 1.1813999 4294901760
0.24959999 -0.37310001 1.1873 4294901760
0.24150001 -0.3689 1.1759 4294901760
0.2357 -0.36809999 1.1756999 4294901760
0.2304 -0.36809999 1.178 4294901760
0.2277 -0.3723 1.1938 4294901760
0.2184 -0.36579999 1.1749001 4294901760
0.2137 -0.36669999 1.1797 4294901760
0.20649999 -0.36340001 1.1709 4294901760
0.2057 -0.37130001 1.1987 4294901760
0.19670001 -0.3646 1.1787 4294901760
0.19490001 -0.37110001 1.2019 4294901760
0.18790001 -0.3678 1.1927 4294901760
0.18260001 -0.3678 1.1945 4294901760
0.17730001 -0.36770001 1.1959 4294901760
0.17030001 -0.36410001 1.1855 4294901760
0.1647 -0.36340001 1.1849 4294901760
0.1602 -0.3651 1.1917 4294901760
0.15620001 -0.36809999 1.2032 4294901760
0.14920001 -0.36390001 1.1909 4294901760
0.14489999 -0.36629999 1.2 4294901760
0.13860001 -0.36340001 1.1917 4294901760
0.134 -0.36520001 1.1988 4294901760
0.12800001 -0.36309999 1.193 4294901760
0.1228 -0.36320001 1.1948 4294901760
0.1173 -0.3624 1.193 4294901760
0.114 -0.36849999 1.2142 4294901760
0.108 -0.3662 1.2078 4294901760
0.1027 -0.3662 1.2085 4294901760
0.097400002 -0.36590001 1.2084 4294901760
0.092399999 -0.36680001 1.2124 4294901760
0.087700002 -0.36950001 1.2221 4294901760
0.081500001 -0.3653 1.2088 4294901760
0.076200001 -0.3651 1.2089 4294901760
0.0713 -0.36680001 1.2154 4294901760
0.066399999 -0.36930001 1.2242 4294901760
0.060400002 -0.36500001 1.2104 4294901760
0.055199999 -0.3655 1.2128 4294901760
0.050299998 -0.36770001 1.2206 4294901760
0.044500001 -0.3637 1.2077 4294901760
0.0396 -0.36719999 1.2196 4294901760
0.034400001 -0.36790001 1.2224 4294901760
0.0295 -0.37279999 1.2388999 4294901760
0.023499999 -0.36230001 1.2039 4294901760
0.0185 -0.3669 1.2194999 4294901760
0.0131 -0.36410001 1.2105 4294901760
0.0078999996 -0.36759999 1.2223001 4294901760
0.0027000001 -0.3696 1.229 4294901760
-0.0026 -0.36669999 1.2194 4294901760
-0.0078999996 -0.366 1.2167 4294901760
-0.013 -0.36090001 1.1997 4294901760
-0.0185 -0.36829999 1.2244999 4294901760
-0.0232 -0.35879999 1.1921999 4294901760
-0.029300001 -0.36970001 1.2287 4294901760
-0.034299999 -0.36649999 1.2177 4294901760
-0.0392 -0.3637 1.2079 4294901760
-0.044500001 -0.3637 1.2074 4294901760
-0.0502 -0.3671 1.2186 4294901760
-0.055500001 -0.36750001 1.2192 4294901760
-0.059799999 -0.3612 1.1976 4294901760
-0.066 -0.3671 1.2169 4294901760
-0.070100002 -0.3608 1.1952 4294901760
-0.076800004 -0.36790001 1.2182 4294901760
-0.082900003 -0.3716 1.2298 4294901760
-0.088200003 -0.3714 1.2286 4294901760
-0.093599997 -0.37180001 1.229 4294901760
-0.097999997 -0.36829999 1.2165999 4294901760
-0.102 -0.3635 1.1998 4294901760
-0.1099 -0.37239999 1.2284 4294901760
-0.1116 -0.3608 1.1885999 4294901760
-0.1185 -0.36590001 1.2046 4294901760
-0.1229 -0.36340001 1.1953 4294901760
-0.1321 -0.37470001 1.2316999 4294901760
-0.1353 -0.3687 1.2104 4294901760
-0.1417 -0.3716 1.2187001 4294901760
-0.1441 -0.3642 1.1931 4294901760
-0.1512 -0.36860001 1.2063 4294901760
-0.1575 -0.3712 1.2134 4294901760
-0.1648 -0.37549999 1.2262 4294901760
-0.1689 -0.37270001 1.2156 4294901760
-0.17550001 -0.37529999 1.2222 4294901760
-0.1802 -0.37380001 1.2158999 4294901760
-0.18269999 -0.36809999 1.1953 4294901760
-0.1884 -0.3689 1.1964999 4294901760
-0.1989 -0.3786 1.2264 4294901760
-0.1987 -0.3682 1.1905 4294901760
-0.2041 -0.36849999 1.1895 4294901760
-0.2078 -0.36559999 1.1781 4294901760
-0.2164 -0.3714 1.1949 4294901760
-0.2199 -0.36829999 1.1829 4294901760
-0.2238 -0.366 1.1734999 4294901760
-0.2322 -0.37099999 1.1872 4294901760
-0.24510001 -0.38280001 1.2233 4294901760
-0.24690001 -0.37709999 1.2025 4294901760
-0.2511 -0.3752 1.1941 4294901760
-0.25690001 -0.37599999 1.194 4294901760
-0.2613 -0.37450001 1.1866 4294901760
-0.2624 -0.36840001 1.1648 4294901760
-0.27399999 -0.37709999 1.1899 4294901760
-0.27790001 -0.375 1.1805 4294901760
-0.285 -0.37729999 1.1849 4294901760
-0.28459999 -0.36970001 1.1582 4294901760
-0.30250001 -0.38569999 1.2059 4294901760
-0.29350001 -0.36759999 1.1458 4294901760
0.51679999 -0.41639999 1.1285 4294901760
0.53479999 -0.43579999 1.1881 4294901760
0.52450001 -0.4325 1.1849999 4294901760
0.50730002 -0.4233 1.1657 4294901760
0.4815 -0.40650001 1.1247 4294901760
0.4727 -0.4039 1.1231 4294901760
0.46610001 -0.4032 1.1264 4294901760
0.46630001 -0.4084 1.1463 4294901760
0.4707 -0.4174 1.1774 4294901760
0.46059999 -0.4136 1.1719 4294901760
0.45210001 -0.4113 1.1702 4294901760
0.4436 -0.40880001 1.1681 4294901760
0.43149999 -0.40290001 1.1561 4294901760
0.4285 -0.40549999 1.1683 4294901760
0.4278 -0.41029999 1.1871001 4294901760
0.41859999 -0.40709999 1.1822 4294901760
0.4113 -0.40549999 1.1822 4294901760
0.4052 -0.4052 1.1858 4294901760
0.40099999 -0.4068 1.1947 4294901760
0.38260001 -0.39379999 1.1603 4294901760
0.39039999 -0.40779999 1.206 4294901760
0.37130001 -0.39359999 1.1677001 4294901760
0.368 -0.39610001 1.179 4294901760
0.36680001 -0.40090001 1.1975 4294901760
0.35049999 -0.38909999 1.1655999 4294901760
0.3531 -0.39829999 1.1971 4294901760
0.34 -0.38980001 1.1747 4294901760
0.32589999 -0.37970001 1.1475 4294901760
0.3242 -0.38409999 1.1641001 4294901760
0.31029999 -0.37400001 1.1364 4294901760
0.30599999 -0.3752 1.1431 4294901760
0.29899999 -0.37310001 1.14 4294901760
0.51679999 -0.41639999 1.1285 4294901760
0.53479999 -0.43579999 1.1881 4294901760
0.52450001 -0.4325 1.1849999 4294901760
0.50730002 -0.4233 1.1657 4294901760
0.4815 -0.40650001 1.1247 4294901760
0.4727 -0.4039 1.1231 4294901760
0.46610001 -0.4032 1.1264 4294901760
0.46630001 -0.4084 1.1463 4294901760
0.4707 -0.4174 1.1774 4294901760
0.46059999 -0.4136 1.1719 4294901760
0.45210001 -0.4113 1.1702 4294901760
0.4436 -0.40880001 1.1681 4294901760
0.43149999 -0.40290001 1.1561 4294901760
0.4285 -0.40549999 1.1683 4294901760
0.4278 -0.41029999 1.1871001 4294901760
0.41859999 -0.40709999 1.1822 4294901760
0.4113 -0.40549999 1.1822 4294901760
0.4052 -0.4052 1.1858 4294901760
0.40099999 -0.4068 1.1947 4294901760
0.38260001 -0.39379999 1.1603 4294901760
0.39039999 -0.40779999 1.206 4294901760
0.37130001 -0.39359999 1.1677001 4294901760
0.368 -0.39610001 1.179 4294901760
0.36680001 -0.40090001 1.1975 4294901760
0.35049999 -0.38909999 1.1655999 4294901760
0.3531 -0.39829999 1.1971 4294901760
0.34 -0.38980001 1.1747 4294901760
0.32589999 -0.37970001 1.1475 4294901760
0.3242 -0.38409999 1.1641001 4294901760
0.31029999 -0.37400001 1.1364 4294901760
0.30599999 -0.3752 1.1431 4294901760
0.29899999 -0.37310001 1.14 4294901760
0.29530001 -0.37509999 1.1489 4294901760
0.296 -0.3829 1.1762 4294901760
0.28760001 -0.37900001 1.1670001 4294901760
0.28259999 -0.37940001 1.171 4294901760
0.2757 -0.37740001 1.1674 4294901760
0.26660001 -0.37220001 1.1538 4294901760
0.26629999 -0.37920001 1.1785001 4294901760
0.2572 -0.3739 1.1641999 4294901760
0.25260001 -0.37490001 1.1698 4294901760
0.245 -0.3714 1.1614 4294901760
0.2446 -0.37900001 1.1878 4294901760
0.23729999 -0.37599999 1.1804 4294901760
0.23190001 -0.37580001 1.1822 4294901760
0.22400001 -0.3716 1.171 4294901760
0.21789999 -0.37020001 1.1687 4294901760
0.2146 -0.37360001 1.1815 4294901760
0.20919999 -0.3734 1.1829 4294901760
0.1992 -0.36469999 1.1569 4294901760
0.1961 -0.3687 1.1717 4294901760
0.1947 -0.3761 1.1971 4294901760
0.1866 -0.37059999 1.1813999 4294901760
0.1795 -0.36680001 1.1707 4294901760
0.17649999 -0.3714 1.1872 4294901760
0.17 -0.36880001 1.1805 4294901760
0.1656 -0.3707 1.188 4294901760
0.15889999 -0.36739999 1.179 4294901760
0.1541 -0.3682 1.1829 4294901760
0.1496 -0.37009999 1.1906 4294901760
0.1441 -0.36939999 1.1896 4294901760
0.1363 -0.36269999 1.1691 4294901760
0.1356 -0.3748 1.2098 4294901760
0.12909999 -0.3716 1.2005 4294901760
0.1235 -0.3705 1.1982 4294901760
0.1163 -0.36430001 1.1788 4294901760
0.1134 -0.37189999 1.2049 4294901760
0.1072 -0.36880001 1.1955 4294901760
0.1016 -0.36750001 1.1921999 4294901760
0.097000003 -0.3696 1.2 4294901760
0.090700001 -0.3653 1.1868 4294901760
0.085900001 -0.36719999 1.1939 4294901760
0.079999998 -0.36410001 1.1844 4294901760
0.074900001 -0.36410001 1.1853 4294901760
0.070900001 -0.37040001 1.2066 4294901760
0.065200001 -0.36750001 1.1976 4294901760
0.060699999 -0.37189999 1.2125 4294901760
0.054699998 -0.36719999 1.1976 4294901760
0.0495 -0.36700001 1.1976 4294901760
0.044500001 -0.36919999 1.2051001 4294901760
0.039000001 -0.3669 1.198 4294901760
0.034200002 -0.37090001 1.2113 4294901760
0.028999999 -0.37220001 1.2161 4294901760
0.023700001 -0.37099999 1.2121 4294901760
0.018200001 -0.3671 1.1997 4294901760
0.013 -0.368 1.2027 4294901760
0.0077999998 -0.3651 1.1931 4294901760
0.0026 -0.3655 1.1946 4294901760
-0.0026 -0.3673 1.2004 4294901760
-0.0077999998 -0.3653 1.194 4294901760
-0.013 -0.36759999 1.2015001 4294901760
-0.0185 -0.37200001 1.2157 4294901760
-0.0232 -0.36379999 1.1885 4294901760
-0.0287 -0.36849999 1.2038 4294901760
-0.034200002 -0.37040001 1.2098 4294901760
-0.039000001 -0.36660001 1.1968 4294901760
-0.044100001 -0.36539999 1.1925 4294901760
-0.050099999 -0.37200001 1.2139 4294901760
-0.054499999 -0.36590001 1.1932 4294901760
-0.059999999 -0.36759999 1.1985 4294901760
-0.064499997 -0.36390001 1.1857001 4294901760
-0.070200004 -0.36660001 1.1941 4294901760
-0.075999998 -0.3696 1.2031 4294901760
-0.078699999 -0.35780001 1.1637 4294901760
-0.085600004 -0.36579999 1.1892 4294901760
-0.093400002 -0.37650001 1.2234 4294901760
-0.099799998 -0.3802 1.2349 4294901760
-0.1025 -0.37059999 1.2024 4294901760
-0.1082 -0.3721 1.2066 4294901760
-0.1127 -0.36970001 1.1976 4294901760
-0.118 -0.3696 1.1962 4294901760
-0.1256 -0.37689999 1.2189 4294901760
-0.1295 -0.37279999 1.2043 4294901760
-0.1344 -0.3716 1.1993001 4294901760
-0.13959999 -0.3714 1.1975 4294901760
-0.14650001 -0.37549999 1.2096 4294901760
-0.15270001 -0.3777 1.2151999 4294901760
-0.1551 -0.37079999 1.1913 4294901760
-0.1592 -0.368 1.181 4294901760
-0.1649 -0.3691 1.1828001 4294901760
-0.17030001 -0.36950001 1.1826 4294901760
-0.1776 -0.37369999 1.1947 4294901760
-0.186 -0.38010001 1.2137001 4294901760
-0.1867 -0.37079999 1.1819 4294901760
-0.19059999 -0.36809999 1.1715 4294901760
-0.19840001 -0.373 1.1855 4294901760
-0.2005 -0.36719999 1.165 4294901760
-0.20990001 -0.37459999 1.1866 4294901760
-0.2147 -0.37369999 1.1818 4294901760
-0.21879999 -0.37169999 1.1733 4294901760
-0.2229 -0.3698 1.1653 4294901760
-0.23549999 -0.38159999 1.2005 4294901760
-0.23379999 -0.3705 1.163 4294901760
-0.24680001 -0.38240001 1.1983 4294901760
-0.2481 -0.3761 1.1762 4294901760
-0.24600001 -0.36520001 1.1393 4294901760
-0.25960001 -0.37729999 1.175 4294901760
-0.25909999 -0.3691 1.1466 4294901760
-0.2676 -0.37349999 1.158 4294901760
-0.27489999 -0.37639999 1.1643 4294901760
-0.2836 -0.3809 1.1756001 4294901760
-0.289 -0.3809 1.1726 4294901760
-0.29539999 -0.38209999 1.1736 4294901760
-0.30039999 -0.38150001 1.1689 4294901760
0.53060001 -0.43360001 1.1537 4294901760
0.50239998 -0.41530001 1.1106 4294901760
0.50700003 -0.42399999 1.1403 4294901760
0.51120001 -0.4325 1.1694 4294901760
0.49860001 -0.4269 1.1601 4294901760
0.47799999 -0.41429999 1.1311001 4294901760
0.46869999 -0.41119999 1.128 4294901760
0.46579999 -0.41370001 1.1404999 4294901760
0.45899999 -0.41280001 1.1432 4294901760
0.46349999 -0.42219999 1.1747 4294901760
0.44580001 -0.4113 1.1492 4294901760
0.43700001 -0.4084 1.146 4294901760
0.43259999 -0.40970001 1.1545 4294901760
0.4208 -0.4039 1.1427 4294901760
0.41119999 -0.40000001 1.1362 4294901760
0.41060001 -0.40490001 1.1548001 4294901760
0.41060001 -0.41060001 1.1756999 4294901760
0.39539999 -0.40099999 1.1523 4294901760
0.38960001 -0.40079999 1.156 4294901760
0.3809 -0.3976 1.1508 4294901760
0.37169999 -0.39379999 1.1437 4294901760
0.36930001 -0.39700001 1.1571 4294901760
0.37029999 -0.40419999 1.1823 4294901760
0.35510001 -0.39359999 1.1547 4294901760
0.35120001 -0.3955 1.1639 4294901760
0.34619999 -0.396 1.1691999 4294901760
0.33829999 -0.3933 1.1647 4294901760
0.33059999 -0.39070001 1.1604 4294901760
0.3134 -0.3766 1.1214 4294901760
0.32080001 -0.39199999 1.171 4294901760
0.31150001 -0.38730001 1.1599 4294901760
0.2976 -0.3766 1.1306 4294901760
0.53060001 -0.43360001 1.1537 4294901760
0.50239998 -0.41530001 1.1106 4294901760
0.50700003 -0.42399999 1.1403 4294901760
0.51120001 -0.4325 1.1694 4294901760
0.49860001 -0.4269 1.1601 4294901760
0.47799999 -0.41429999 1.1311001 4294901760
0.46869999 -0.41119999 1.128 4294901760
0.46579999 -0.41370001 1.1404999 4294901760
0.45899999 -0.41280001 1.1432 4294901760
0.46349999 -0.42219999 1.1747 4294901760
0.44580001 -0.4113 1.1492 4294901760
0.43700001 -0.4084 1.146 4294901760
0.43259999 -0.40970001 1.1545 4294901760
0.4208 -0.4039 1.1427 4294901760
0.41119999 -0.40000001 1.1362 4294901760
0.41060001 -0.40490001 1.1548001 4294901760
0.41060001 -0.41060001 1.1756999 4294901760
0.39539999 -0.40099999 1.1523 4294901760
0.38960001 -0.40079999 1.156 4294901760
0.3809 -0.3976 1.1508 4294901760
0.37169999 -0.39379999 1.1437 4294901760
0.36930001 -0.39700001 1.1571 4294901760
0.37029999 -0.40419999 1.1823 4294901760
0.35510001 -0.39359999 1.1547 4294901760
0.35120001 -0.3955 1.1639 4294901760
0.34619999 -0.396 1.1691999 4294901760
0.33829999 -0.3933 1.1647 4294901760
0.33059999 -0.39070001 1.1604 4294901760
0.3134 -0.3766 1.1214 4294901760
0.32080001 -0.39199999 1.171 4294901760
0.31150001 -0.38730001 1.1599 4294901760
0.2976 -0.3766 1.1306 4294901760
0.29719999 -0.3829 1.1528 4294901760
0.29120001 -0.38209999 1.1532 4294901760
0.27610001 -0.36899999 1.1161 4294901760
0.27610001 -0.37599999 1.1402 4294901760
0.27180001 -0.37740001 1.1473 4294901760
0.26570001 -0.37619999 1.1461 4294901760
0.26370001 -0.38080001 1.1631 4294901760
0.2545 -0.3752 1.1483001 4294901760
0.25049999 -0.37709999 1.1567 4294901760
0.24420001 -0.37549999 1.154 4294901760
0.2421 -0.3804 1.1715 4294901760
0.2335 -0.37529999 1.1579 4294901760
0.2216 -0.36430001 1.126 4294901760
0.22570001 -0.37959999 1.176 4294901760
0.21879999 -0.377 1.17 4294901760
